46.98 0.0 0.0 0.0 0.0 0.0 0.0 0.0 0.0 0.0 0.0 0.0 0.0 0.0 0.0 0.0 0.0 0.0 0.0 0.0 0.0 0.0 0.0 0.0 0.0 0.0 0.0 0.0 0.0 0.0 0.0 0.0 0.0 0.0 0.0 0.0 0.0 0.0 0.0 0.0 0.0 0.0 0.0 0.0 0.0 0.0 0.0 0.0 0.0 6.58 9.53 12.15 13.79 16.21 18.86 20.84 21.05 20.05 17.93 15.59 14.27 15.18 17.74 21.39 23.35 23.53 23.42 23.34 23.06 22.3 21.83 21.39 21.2 20.92 20.6 20.14 19.65 19.42 19.34 19.49 19.29 18.43 16.24 14.2 12.84 13.45 16.11 18.7 19.41 19.38 19.16 18.79 18.18 17.04 15.54 14.18 12.41 10.53 8.94 5.84 3.34 0.0 0.0 0.0 0.0 0.0 0.0 0.0 0.0 0.0 0.0 9.04 12.69 17.18 21.9 25.31 27.21 28.33 28.77 28.3 27.3 27.09 26.44 25.43 24.59 21.4 19.55 17.73 15.76 13.7 11.74 9.62 8.48 6.95 5.25 2.86 0.0 0.0 0.0 0.0 0.0 0.0 0.0 0.0 0.0 0.0 0.0 0.0 0.0 0.0 0.0 0.0 0.0 0.0 0.0 0.0 0.0 0.0 0.0 0.0 0.0 0.0 0.0 0.0 0.0 0.0 4.43 5.45 6.08 6.15 7.77 7.73 7.98 10.98 11.63 11.33 9.41 8.71 8.12 7.99 8.29 11.27 12.5 12.57 12.42 11.61 11.52 13.46 22.48 11.39 6.37 4.99 6.77 14.73 27.1 29.43 0.0 0.0 1.66 0.0 10.56 0.0 2.75 0.0 0.0 0.0 0.0 0.0 0.0 0.0 0.0 0.0 0.0 0.0 0.0 0.0 0.0 0.0 0.0 0.0 0.0 0.0 0.0 0.0 0.0 0.0 0.0 0.0 0.0 0.0 0.0 0.0 0.0 0.0 0.0 0.0 0.0 0.0 0.0 0.0 0.0 0.0 0.0 0.0 0.0 0.0 0.0 0.0 0.0 0.0 0.0 0.0 0.0 0.0 0.0 0.0 0.0 0.0 0.0 0.0 9.51 10.7 11.35 11.4 11.5 12.36 12.79 13.36 12.72 11.72 12.66 8.12 6.58 12.16 12.91 14.54 17.35 15.6 14.64 14.84 15.06 15.28 15.5 15.63 16.23 16.53 15.57 15.13 13.71 11.34 11.11 10.94 10.17 9.37 8.3 8.7 7.93 7.19 8.78 13.64 17.17 24.94 25.0 25.98 20.59 24.53 20.59 20.39 24.47 26.85 28.35 27.51 25.03 16.55 16.71 16.98 17.14 17.38 17.04 16.45 16.44 16.36 15.97 15.09 15.35 16.64 21.91 23.88 22.2 20.92 24.49 25.08 25.84 27.06 21.19 20.59 20.58 20.05 19.65 20.42 21.27 19.33 18.72 18.65 19.16 19.02 18.62 18.54 18.49 17.99 17.42 17.06 16.92 16.7 16.69 16.55 16.54 16.44 16.37 16.25 15.96 15.86 16.0 15.88 16.16 16.76 17.88 17.11 16.57 16.54 16.35 15.78 15.54 16.12 17.39 17.8 18.54 18.83 18.96 18.98 19.05 19.64 19.86 20.01 19.92 19.44 18.63 17.88 17.08 16.13 14.86 14.28 14.11 15.08 15.22 15.78 15.82 14.64 13.41 13.68 13.56 12.19 11.09 11.1 10.89 10.84 10.59 10.11 9.69 9.88 9.77 9.53 9.54 9.57 9.5 9.33 9.03 8.59 8.04 7.39 6.85 6.44 6.14 5.94 5.82 5.75 5.63 5.45 5.19 4.87 4.93 5.13 5.42 5.16 4.8 4.15 3.86 3.71 4.37 5.58 6.39 6.87 7.17 7.1 7.2 8.18 8.72 9.3 9.96 11.0 11.76 11.25 9.63 8.51 8.05 12.99 26.07 30.83 33.4 34.46 27.99 17.16 10.84 12.18 14.3 15.32 14.63 15.4 17.46 23.11 29.49 35.84 36.19 38.68 40.91 42.26 43.94 46.98 46.98 46.98 46.98 46.98
46.5 0.0 0.0 0.0 0.0 0.0 0.0 0.0 0.0 0.0 0.0 0.0 0.0 0.0 0.0 0.0 0.0 0.0 0.0 0.0 0.0 0.0 0.0 0.0 0.0 0.0 0.0 0.0 0.0 0.0 0.0 0.0 0.0 0.0 0.0 0.0 0.0 0.0 0.0 0.0 0.0 0.0 0.0 0.0 5.96 5.61 5.71 5.43 0.0 0.0 5.13 7.08 8.82 11.91 17.17 19.68 19.98 18.96 16.81 14.81 13.96 14.38 16.08 19.39 22.61 23.91 23.97 23.79 23.39 22.36 21.62 21.28 21.34 21.09 20.7 20.21 19.71 19.3 19.09 19.81 20.3 19.9 18.63 16.99 15.09 14.95 17.27 19.4 19.68 19.57 19.39 19.22 18.93 18.11 16.87 15.7 14.26 11.76 8.91 5.82 0.0 0.0 0.0 0.0 0.0 0.0 0.0 0.0 4.97 5.65 8.36 12.05 16.27 20.32 24.29 26.7 27.87 28.42 28.39 27.8 26.92 26.66 26.16 24.46 20.81 20.26 18.32 16.14 14.12 12.17 10.3 8.82 7.46 6.08 4.92 0.0 0.0 0.0 0.0 0.0 0.0 0.0 0.0 0.0 0.0 0.0 0.0 0.0 0.0 0.0 0.0 0.0 0.0 0.0 0.0 0.0 0.0 0.0 0.0 0.0 0.0 0.0 0.0 0.0 0.0 0.0 3.36 4.23 5.23 6.45 6.21 6.55 9.52 13.66 15.43 16.26 16.7 13.71 11.16 10.92 10.66 12.57 13.43 13.64 12.87 12.7 12.52 15.17 23.11 11.93 7.66 8.9 16.49 22.68 17.81 0.0 0.0 0.0 0.0 0.0 3.83 0.0 0.0 0.0 0.0 0.0 0.0 0.0 0.0 0.0 0.0 0.0 0.0 0.0 0.0 0.0 0.0 0.0 0.0 0.0 0.0 0.0 0.0 0.0 0.0 0.0 0.0 0.0 0.0 0.0 0.0 0.0 0.0 0.0 0.0 0.0 0.0 0.0 0.0 0.0 0.0 0.0 0.0 0.0 0.0 0.0 0.0 0.0 0.0 0.0 0.0 0.0 0.0 0.0 0.0 0.0 0.0 0.0 0.0 8.88 8.04 10.33 11.22 11.37 11.25 11.58 12.82 12.62 12.02 9.91 10.17 11.09 16.26 16.95 16.12 19.01 17.33 15.16 14.44 14.57 14.38 14.75 15.24 15.44 15.05 14.15 13.64 12.57 10.82 8.14 8.06 7.81 6.72 6.12 6.05 7.35 7.43 11.27 14.75 17.31 24.43 24.54 25.27 25.78 20.56 20.68 19.84 19.65 20.17 26.0 25.8 27.81 26.41 24.12 18.85 18.21 17.89 18.26 18.12 17.64 17.4 17.55 17.28 16.87 16.67 17.93 23.38 23.84 21.4 20.84 21.09 24.81 25.26 26.68 28.65 21.1 20.93 20.73 20.37 20.72 22.21 20.13 18.75 18.5 18.92 19.12 18.89 18.72 18.85 18.38 17.83 17.58 17.47 17.05 16.82 16.85 16.72 16.52 16.7 16.32 15.97 16.1 16.21 16.48 17.18 17.81 18.45 17.11 16.41 15.91 15.47 16.0 18.15 19.19 19.33 19.01 19.45 19.66 19.19 18.3 18.86 18.85 18.78 18.44 18.49 18.4 17.87 16.97 15.73 14.35 13.69 13.56 12.84 13.57 14.18 14.41 14.66 13.92 12.51 13.02 13.7 13.35 12.13 11.48 11.11 10.97 10.76 10.92 10.42 10.32 10.01 9.83 9.81 9.79 9.72 9.61 9.36 8.97 8.43 7.77 7.2 6.74 6.37 6.09 5.9 5.79 5.67 5.53 5.34 5.14 5.23 4.99 5.15 4.63 4.41 4.36 5.02 7.15 8.74 10.28 11.05 11.16 11.33 11.55 12.55 13.64 14.63 16.35 18.62 24.34 26.09 23.12 15.37 12.92 14.61 27.07 32.73 33.81 33.35 32.34 24.93 14.53 12.08 13.01 18.55 22.09 17.42 14.29 15.3 19.76 29.51 35.62 35.97 38.35 40.37 41.65 43.23 46.5 46.5 46.5 46.5 46.5
46.5 0.0 0.0 0.0 0.0 0.0 0.0 0.0 0.0 0.0 0.0 0.0 0.0 0.0 0.0 0.0 0.0 0.0 0.0 0.0 0.0 0.0 0.0 0.0 0.0 0.0 0.0 0.0 0.0 0.0 0.0 0.0 0.0 0.0 0.0 0.0 0.0 0.0 0.0 0.0 0.0 0.0 0.0 5.89 6.74 6.78 7.17 6.97 6.48 5.59 3.46 3.77 5.42 8.09 13.09 16.68 18.25 17.62 15.5 13.06 12.06 13.08 15.3 18.02 20.96 23.4 24.55 24.57 23.91 22.68 21.73 21.35 21.57 21.38 20.99 20.48 19.84 19.09 18.78 19.79 20.57 20.53 20.09 19.05 17.87 17.5 18.78 20.04 19.99 19.77 19.56 19.45 19.34 18.77 17.43 16.35 15.49 12.86 8.97 5.28 0.0 0.0 0.0 0.0 0.0 0.0 0.0 7.23 6.96 7.87 11.24 15.37 19.46 23.25 26.09 27.64 28.35 28.38 28.12 27.79 27.0 26.75 25.67 21.1 19.75 18.59 16.73 14.25 12.72 10.69 9.1 7.71 6.55 5.04 3.19 0.0 0.0 0.0 0.0 0.0 0.0 0.0 0.0 0.0 0.0 0.0 0.0 0.0 0.0 0.0 0.0 0.0 0.0 0.0 0.0 0.0 0.0 0.0 0.0 0.0 0.0 0.0 0.0 0.0 0.0 0.0 4.77 3.86 3.32 3.96 7.08 10.09 12.11 12.41 10.22 11.01 13.61 15.16 16.65 16.07 13.75 13.12 13.33 13.81 13.49 13.67 14.1 15.83 19.54 15.88 13.48 21.0 24.54 11.72 4.71 0.0 0.0 0.0 0.0 0.0 0.0 0.0 0.0 0.0 0.0 0.0 0.0 0.0 0.0 0.0 0.0 0.0 0.0 0.0 0.0 0.0 0.0 0.0 0.0 0.0 0.0 0.0 0.0 0.0 0.0 0.0 0.0 0.0 0.0 0.0 0.0 0.0 0.0 0.0 0.0 0.0 0.0 0.0 0.0 0.0 0.0 0.0 0.0 0.0 0.0 0.0 0.0 0.0 0.0 0.0 0.0 0.0 0.0 0.0 0.0 0.0 0.0 0.0 0.0 7.82 7.39 8.99 7.6 8.27 7.25 7.59 10.45 10.65 9.78 9.72 13.2 15.11 20.11 20.42 19.84 18.86 17.21 16.32 15.01 14.04 12.8 14.7 15.16 14.97 14.29 13.66 11.85 9.91 7.59 6.19 5.9 4.26 4.06 5.52 6.14 8.79 11.58 16.64 18.42 24.44 20.98 24.79 25.16 20.81 19.64 20.27 20.12 19.62 20.28 20.18 24.02 30.33 27.24 24.77 23.19 18.74 17.97 18.14 18.57 18.24 17.92 17.98 18.05 17.89 18.05 18.5 19.98 21.26 20.23 20.63 20.83 24.56 24.57 25.61 27.59 26.88 21.17 21.05 20.87 21.1 23.03 21.0 19.75 19.47 19.02 19.12 18.94 18.86 19.04 18.93 18.28 18.08 17.86 17.37 17.11 17.03 16.89 16.72 16.85 16.35 16.01 16.4 16.57 16.98 17.87 18.12 17.7 16.96 16.14 15.75 16.62 19.32 20.98 19.85 18.77 18.54 18.61 18.1 17.67 17.07 17.44 17.48 17.35 16.56 16.53 16.55 16.33 16.48 16.35 14.55 13.67 13.06 12.34 12.15 12.77 13.24 13.54 13.24 12.83 12.96 13.52 13.72 13.39 11.89 11.47 11.34 11.42 12.13 11.24 11.08 10.93 10.25 10.0 9.87 9.79 9.74 9.58 9.29 8.85 8.27 7.74 7.26 6.85 6.51 6.25 6.06 5.88 5.68 5.47 5.24 5.25 4.65 4.99 5.06 6.4 9.53 11.42 13.46 15.03 16.22 16.53 17.4 18.92 19.61 21.93 24.89 30.96 37.6 38.4 40.87 38.66 35.01 31.5 30.16 31.18 34.3 34.03 34.32 33.62 31.46 24.05 15.99 14.88 18.24 27.98 26.21 16.04 13.26 14.56 19.04 29.31 33.48 35.68 38.35 40.03 41.12 42.52 46.5 46.5 46.5 46.5 46.5
46.5 0.0 0.0 0.0 0.0 0.0 0.0 0.0 0.0 0.0 0.0 0.0 0.0 0.0 0.0 0.0 0.0 0.0 0.0 0.0 0.0 0.0 0.0 0.0 0.0 0.0 0.0 0.0 0.0 0.0 0.0 0.0 0.0 0.0 0.0 0.0 0.0 0.0 0.0 0.0 0.0 0.0 0.0 5.78 6.99 7.59 8.17 8.18 7.1 5.11 2.91 3.08 4.74 6.35 9.33 12.7 14.97 15.47 14.65 12.21 10.81 11.89 14.47 16.88 18.91 21.51 24.01 25.09 24.64 23.37 22.2 21.85 21.94 21.7 21.25 20.71 20.07 19.29 19.03 19.89 20.68 20.8 20.71 20.15 19.73 19.49 19.92 20.47 20.28 20.02 19.74 19.6 19.62 19.05 17.4 16.62 15.87 13.24 9.01 5.01 0.0 0.0 0.0 0.0 7.91 8.43 7.97 8.64 9.13 10.63 14.41 18.39 22.37 25.49 27.28 28.2 28.55 28.23 27.98 27.88 27.06 26.34 24.93 19.6 18.68 17.26 15.12 13.26 11.16 9.26 7.93 6.41 5.26 3.82 0.0 0.0 0.0 0.0 0.0 0.0 0.0 0.0 0.0 0.0 0.0 0.0 0.0 0.0 0.0 0.0 0.0 0.0 0.0 0.0 0.0 0.0 0.0 0.0 0.0 0.0 0.0 0.0 0.0 0.0 0.0 3.87 4.53 2.65 2.21 4.46 8.91 11.68 10.81 8.08 7.38 7.91 9.83 11.48 14.66 15.97 16.29 15.95 15.19 14.67 14.5 14.97 17.81 22.61 25.0 26.99 16.06 19.16 11.97 4.8 2.72 0.0 0.0 0.0 0.0 0.0 0.0 0.0 0.0 0.0 0.0 0.0 0.0 0.0 0.0 0.0 0.0 0.0 0.0 0.0 0.0 0.0 0.0 0.0 0.0 0.0 0.0 0.0 0.0 0.0 0.0 0.0 0.0 0.0 0.0 0.0 0.0 0.0 0.0 0.0 0.0 0.0 0.0 0.0 0.0 0.0 0.0 0.0 0.0 0.0 0.0 0.0 0.0 0.0 0.0 0.0 0.0 0.0 0.0 0.0 0.0 0.0 0.0 0.0 0.0 0.0 4.3 3.81 4.01 4.79 2.47 0.0 0.0 12.38 10.75 11.31 15.21 9.36 10.03 13.52 16.73 17.07 16.09 15.56 14.4 12.78 12.41 14.29 14.87 14.75 14.11 13.22 10.41 7.15 3.76 2.72 0.0 0.0 9.03 10.84 10.15 14.57 17.92 19.63 20.61 20.75 20.61 25.41 21.11 19.88 18.86 19.76 20.28 19.73 19.58 18.67 19.81 23.74 28.22 25.99 24.97 23.84 23.6 23.43 19.3 18.98 18.35 18.48 18.75 18.52 18.6 18.72 18.91 17.82 18.34 19.41 21.38 21.01 23.72 24.26 26.51 28.4 21.65 21.14 20.81 21.21 23.71 22.59 20.33 19.48 19.32 19.33 19.02 18.95 19.22 19.29 19.12 18.73 18.22 17.94 17.48 17.09 16.73 16.55 16.73 16.63 16.58 16.66 16.69 17.28 18.23 17.37 17.24 16.89 16.16 17.07 19.32 19.76 17.94 17.23 17.37 17.95 18.25 18.39 18.05 17.79 17.54 16.87 16.11 15.01 15.58 14.38 13.6 14.17 14.96 15.42 15.27 13.88 11.95 11.31 11.45 12.46 12.96 13.85 13.92 13.27 13.33 13.5 13.75 12.9 11.95 11.93 11.86 11.63 11.33 11.17 10.72 10.36 10.1 9.89 9.79 9.79 9.71 9.52 9.19 8.74 8.26 7.77 7.33 6.94 6.62 6.36 6.11 5.85 5.46 4.83 4.45 4.72 6.85 10.02 13.35 16.28 18.08 19.86 21.83 23.31 23.38 26.73 32.24 30.38 31.44 35.81 46.06 55.72 55.93 48.23 41.9 38.16 36.69 36.15 36.47 36.25 36.13 36.12 33.51 28.76 21.27 16.1 25.14 35.07 34.37 19.23 13.71 14.06 18.26 26.35 32.33 33.76 34.18 38.26 39.9 40.79 41.98 46.5 46.5 46.5 46.5 46.5
46.5 0.0 0.0 0.0 0.0 0.0 0.0 0.0 0.0 0.0 0.0 0.0 0.0 0.0 0.0 0.0 0.0 0.0 0.0 0.0 0.0 0.0 0.0 0.0 0.0 0.0 0.0 0.0 0.0 0.0 0.0 0.0 0.0 0.0 0.0 0.0 0.0 0.0 0.0 0.0 0.0 0.0 0.0 0.0 6.34 7.5 8.39 8.86 7.63 5.03 3.95 4.8 6.71 7.28 7.36 9.07 11.19 12.52 13.34 12.07 10.76 11.27 13.78 16.04 17.33 19.57 22.59 24.71 25.09 24.23 23.0 22.56 22.3 21.88 21.43 20.97 20.48 19.83 19.56 19.97 20.72 20.88 20.87 20.67 20.64 20.58 20.63 20.77 20.53 20.27 20.0 19.89 19.89 19.13 17.19 17.08 16.55 13.54 9.16 5.28 0.0 0.0 0.0 9.93 10.13 10.66 10.72 10.92 11.71 13.88 17.81 21.57 24.94 27.01 28.16 28.7 28.58 28.04 27.85 27.58 26.79 25.54 19.6 18.76 17.41 15.83 14.22 12.17 9.92 7.79 6.33 4.74 3.69 0.0 0.0 0.0 0.0 0.0 0.0 0.0 0.0 0.0 0.0 0.0 0.0 0.0 0.0 0.0 0.0 0.0 0.0 0.0 0.0 0.0 0.0 0.0 0.0 0.0 0.0 0.0 0.0 0.0 0.0 0.0 2.86 3.4 3.03 0.0 3.22 8.6 11.24 9.41 6.06 7.17 7.23 6.46 7.77 8.47 9.02 11.94 13.9 15.13 15.04 14.88 15.66 17.45 20.87 17.7 15.17 13.38 9.25 11.76 7.67 3.62 0.0 0.0 0.0 0.0 0.0 0.0 0.0 0.0 0.0 0.0 0.0 0.0 0.0 0.0 0.0 0.0 0.0 0.0 0.0 0.0 0.0 0.0 0.0 0.0 0.0 0.0 0.0 0.0 0.0 0.0 0.0 0.0 0.0 0.0 0.0 0.0 0.0 0.0 0.0 0.0 0.0 0.0 0.0 0.0 0.0 0.0 0.0 0.0 0.0 0.0 0.0 0.0 0.0 0.0 0.0 0.0 0.0 0.0 0.0 0.0 0.0 0.0 0.0 0.0 0.0 0.0 0.0 0.0 3.15 0.0 0.0 7.57 10.34 12.76 15.25 14.2 11.08 7.22 6.63 9.45 11.16 12.38 12.97 13.15 12.45 11.9 12.85 14.16 14.27 14.27 13.64 12.38 8.04 4.5 0.0 0.0 9.74 13.65 15.8 17.45 17.81 18.98 19.98 20.35 20.48 20.02 21.03 24.39 20.98 18.77 18.48 19.52 20.08 19.26 19.55 19.03 19.84 20.47 24.42 26.78 28.48 29.44 27.53 25.74 23.9 19.89 19.32 18.98 19.13 19.24 19.21 18.93 18.93 17.56 13.78 12.0 15.82 19.46 17.96 23.11 25.26 28.6 26.54 21.12 20.81 21.16 23.73 22.24 19.86 18.8 18.67 18.62 18.82 18.93 19.4 19.51 19.71 19.63 19.06 18.66 17.86 17.55 17.19 16.96 17.15 17.32 17.41 17.34 17.53 18.06 17.71 17.15 17.84 17.85 17.78 18.85 19.1 17.95 16.74 16.15 16.23 16.43 16.28 16.67 17.29 17.24 17.12 16.77 15.82 14.75 14.99 13.89 12.05 12.76 13.5 13.65 15.04 15.74 14.14 11.79 10.54 11.45 12.16 12.95 13.43 13.26 13.41 13.41 14.4 13.99 12.93 12.25 12.51 12.09 11.37 10.73 10.34 10.1 9.82 9.66 9.56 9.51 9.46 9.38 9.22 8.95 8.58 8.14 7.73 7.35 7.0 6.68 6.37 6.04 5.3 4.74 5.05 8.75 13.44 17.02 20.1 22.02 22.47 24.52 25.24 27.71 28.41 31.3 34.88 37.85 42.43 51.73 65.38 65.07 53.57 45.82 41.73 39.19 38.27 38.68 38.81 38.44 38.34 37.52 35.15 31.61 26.56 21.82 33.34 38.6 31.12 17.67 14.35 18.31 28.77 32.54 34.32 34.86 34.82 39.6 40.66 41.26 42.2 46.5 46.5 46.5 46.5 46.5
46.5 0.0 0.0 0.0 0.0 0.0 0.0 0.0 0.0 0.0 0.0 0.0 0.0 0.0 0.0 0.0 0.0 0.0 0.0 0.0 0.0 0.0 0.0 0.0 0.0 0.0 0.0 0.0 0.0 0.0 0.0 0.0 0.0 0.0 0.0 0.0 0.0 0.0 0.0 0.0 0.0 0.0 0.0 0.0 5.24 6.9 7.46 8.75 8.39 6.28 6.37 7.37 9.5 9.47 7.03 6.61 7.97 9.31 10.91 11.5 11.05 11.16 13.39 15.58 16.63 18.56 21.1 23.46 24.89 24.85 23.82 23.16 22.57 21.96 21.51 21.24 20.95 20.45 20.13 20.17 20.76 20.9 20.93 20.91 20.96 20.97 20.96 20.96 20.74 20.52 20.37 20.34 20.19 19.23 17.27 17.81 17.92 14.47 10.07 7.69 8.78 7.75 8.89 11.29 13.58 14.13 13.68 13.48 15.07 17.68 21.38 24.66 26.9 28.07 28.91 29.05 28.41 27.85 27.56 26.49 25.88 25.45 19.19 17.76 16.11 14.44 12.91 10.55 8.4 6.49 4.62 2.92 0.0 0.0 0.0 0.0 0.0 0.0 0.0 0.0 0.0 0.0 0.0 0.0 0.0 0.0 0.0 0.0 0.0 0.0 0.0 0.0 0.0 0.0 0.0 0.0 0.0 0.0 0.0 0.0 0.0 0.0 0.0 3.06 3.27 2.65 0.0 0.0 8.7 10.93 5.2 3.93 5.91 4.33 4.51 5.83 6.08 7.41 9.06 11.92 13.79 15.0 15.19 15.92 17.14 17.4 16.13 14.32 12.45 10.49 8.88 10.94 5.88 2.81 0.0 0.0 0.0 0.0 0.0 0.0 0.0 0.0 0.0 0.0 0.0 0.0 0.0 0.0 0.0 0.0 0.0 0.0 0.0 0.0 0.0 0.0 0.0 0.0 0.0 0.0 0.0 0.0 0.0 0.0 0.0 0.0 0.0 0.0 0.0 0.0 0.0 0.0 0.0 0.0 0.0 0.0 0.0 0.0 0.0 0.0 0.0 0.0 0.0 0.0 0.0 0.0 0.0 0.0 0.0 0.0 0.0 0.0 0.0 0.0 0.0 0.0 0.0 0.0 0.0 0.0 0.0 0.0 4.33 6.99 8.66 8.68 9.61 9.83 10.19 10.22 9.2 7.96 6.18 8.12 9.37 11.12 11.7 11.8 12.2 12.6 13.29 13.94 14.03 13.83 12.64 11.34 6.83 2.98 0.0 0.0 14.46 17.1 18.57 19.21 19.56 19.81 20.29 20.32 19.76 20.15 21.16 21.22 20.49 18.03 18.29 18.92 19.27 18.63 19.16 19.07 19.23 19.83 19.91 24.0 24.68 24.63 24.78 24.99 25.42 24.81 20.54 19.56 19.39 19.62 19.71 19.28 19.0 18.52 15.25 10.21 10.69 17.56 17.54 17.48 24.87 28.75 27.17 21.45 20.79 20.78 26.04 22.08 19.41 18.5 18.08 17.86 18.62 18.87 19.52 19.79 19.82 20.16 19.62 18.69 18.05 18.12 17.92 17.8 17.82 17.95 17.98 17.76 18.27 17.96 17.62 17.81 18.8 19.03 19.57 18.63 18.67 17.12 15.59 13.68 13.0 13.05 13.23 13.45 14.54 15.1 15.43 15.72 15.66 15.26 14.69 12.66 10.1 11.23 13.29 12.7 13.31 14.82 15.34 14.06 12.67 12.32 12.25 12.35 12.7 12.79 13.17 13.44 14.38 14.26 13.32 12.42 11.91 11.5 11.37 10.37 9.96 9.81 9.53 9.42 9.32 9.21 9.18 9.21 9.2 9.13 8.88 8.47 8.08 7.72 7.38 7.06 6.74 6.24 4.83 5.55 9.64 14.9 19.53 22.86 26.12 28.3 28.95 29.51 32.37 34.79 33.97 38.5 44.28 54.5 65.36 73.41 72.64 56.53 46.01 42.54 41.09 40.17 39.99 40.23 40.23 40.16 40.02 39.74 38.57 36.18 31.35 28.83 39.64 39.11 30.67 21.82 19.88 27.98 36.15 38.03 38.27 39.29 42.62 44.24 41.93 41.84 42.59 46.5 46.5 46.5 46.5 46.5
46.5 0.0 0.0 0.0 0.0 0.0 0.0 0.0 0.0 0.0 0.0 0.0 0.0 0.0 0.0 0.0 0.0 0.0 0.0 0.0 0.0 0.0 0.0 0.0 0.0 0.0 0.0 0.0 0.0 0.0 0.0 0.0 0.0 0.0 0.0 0.0 0.0 0.0 0.0 0.0 0.0 0.0 0.0 0.0 0.0 0.0 5.26 7.58 9.06 8.42 8.5 8.7 10.42 10.27 6.98 5.29 5.79 6.84 8.22 9.91 10.75 11.26 13.16 15.3 16.58 18.43 20.3 22.22 24.19 24.89 24.16 23.43 22.77 22.08 21.59 21.42 21.26 20.92 20.72 20.7 20.89 20.92 20.98 20.99 21.0 21.01 21.0 20.99 20.9 20.81 20.77 20.76 20.47 19.56 17.96 18.62 19.3 16.29 11.74 8.93 10.04 11.5 12.77 14.65 16.44 16.73 16.13 16.37 19.01 21.57 24.57 26.8 28.04 28.83 29.31 28.85 28.05 27.7 27.38 26.64 25.6 20.24 17.64 16.24 15.37 13.7 11.71 9.01 7.33 4.97 2.79 0.0 0.0 0.0 0.0 0.0 0.0 0.0 0.0 0.0 0.0 0.0 0.0 0.0 0.0 0.0 0.0 0.0 0.0 0.0 0.0 0.0 0.0 0.0 0.0 0.0 0.0 0.0 0.0 0.0 0.0 0.0 2.86 3.81 4.3 4.42 7.1 10.72 8.27 5.01 3.42 6.05 6.39 4.11 3.93 4.73 5.82 7.9 10.45 12.09 14.21 15.43 16.04 17.55 17.02 14.95 13.24 13.93 12.61 11.44 10.11 9.07 4.58 2.53 1.2 0.65 0.0 0.0 0.0 0.0 0.0 0.0 0.0 0.0 0.0 0.0 0.0 0.0 0.0 0.0 0.0 0.0 0.0 0.0 0.0 0.0 0.0 0.0 0.0 0.0 0.0 0.0 0.0 0.0 0.0 0.0 0.0 0.0 0.0 0.0 0.0 0.0 0.0 0.0 0.0 0.0 0.0 0.0 0.0 0.0 0.0 0.0 0.0 0.0 0.0 0.0 0.0 0.0 0.0 0.0 0.0 0.0 0.0 0.0 0.0 0.0 0.0 0.0 0.0 0.0 0.0 0.0 7.59 8.21 8.34 7.96 8.6 9.13 8.63 8.49 7.56 6.97 6.9 8.36 9.86 11.18 11.96 11.97 12.22 12.58 13.08 13.43 13.62 13.59 12.4 9.77 5.81 3.72 0.0 13.71 16.37 18.02 19.06 19.33 19.69 20.19 20.48 20.15 19.57 20.59 21.72 21.3 20.1 17.78 18.28 18.65 18.83 18.54 18.64 18.43 18.14 18.99 19.25 19.32 19.52 20.98 24.01 24.08 23.61 24.61 21.47 20.46 19.88 19.85 19.86 19.7 19.53 19.21 17.58 13.22 9.57 14.19 17.81 17.38 24.67 28.87 27.65 21.12 19.68 20.34 27.11 21.59 18.74 17.73 17.38 17.83 18.78 18.93 19.57 19.81 19.91 20.58 20.17 19.09 18.77 18.76 18.81 18.89 18.73 18.5 18.19 18.57 19.44 18.38 18.59 19.39 20.84 21.67 20.37 18.19 15.87 13.28 12.0 11.26 11.15 11.21 11.34 11.41 11.71 12.07 12.6 13.72 14.67 14.72 13.7 11.35 9.28 9.8 12.4 12.86 12.44 13.27 14.44 14.56 13.66 12.88 12.72 12.6 12.77 12.69 13.07 13.16 13.51 13.65 13.49 13.24 12.06 11.53 11.13 10.22 9.81 9.76 9.51 9.38 9.27 9.15 9.17 9.2 9.25 9.35 9.09 8.61 8.19 7.96 7.83 7.74 7.61 7.52 7.52 9.9 14.5 19.46 29.62 37.34 39.72 39.32 39.27 39.95 42.04 44.2 46.74 53.89 62.07 72.68 76.25 69.7 55.41 45.37 42.42 41.67 41.82 42.11 42.83 43.06 43.07 42.71 41.91 41.38 39.58 37.14 33.31 32.32 38.86 36.53 28.38 23.58 29.8 35.37 38.17 40.45 42.39 43.76 45.28 44.52 42.44 42.54 43.35 46.5 46.5 46.5 46.5 46.5
52.23 0.0 0.0 0.0 0.0 0.0 0.0 0.0 0.0 0.0 0.0 0.0 0.0 0.0 0.0 0.0 0.0 0.0 0.0 0.0 0.0 0.0 0.0 0.0 0.0 0.0 0.0 0.0 0.0 0.0 0.0 0.0 0.0 0.0 0.0 0.0 0.0 0.0 0.0 0.0 0.0 0.0 0.0 0.0 0.0 0.0 5.07 7.14 8.54 8.47 8.35 8.46 9.4 9.59 6.15 4.66 5.27 6.47 7.84 9.27 10.62 11.61 13.19 14.98 16.59 18.63 20.33 22.11 23.92 24.73 24.11 23.26 22.78 22.33 21.81 21.59 21.41 21.19 21.05 20.98 21.0 21.0 21.01 21.02 21.02 21.07 21.02 21.01 20.99 20.97 20.92 20.95 20.74 20.08 19.06 19.66 20.3 18.72 15.4 13.0 14.16 15.67 16.51 17.12 18.01 18.07 17.99 18.78 21.81 24.36 26.55 27.72 28.46 28.99 28.92 28.39 28.01 27.61 26.91 25.83 25.49 17.7 16.0 15.08 13.72 12.32 9.73 7.89 6.32 2.87 0.0 0.0 0.0 0.0 0.0 0.0 0.0 0.0 0.0 0.0 0.0 0.0 0.0 0.0 0.0 0.0 0.0 0.0 0.0 0.0 0.0 0.0 0.0 0.0 0.0 0.0 0.0 0.0 0.0 0.0 0.0 0.0 3.65 5.13 6.95 8.71 10.75 5.24 3.16 2.95 4.2 6.4 5.71 2.59 2.64 4.91 5.6 7.45 10.54 13.32 15.76 16.0 16.37 14.55 15.01 12.95 12.42 13.92 13.25 11.16 8.79 8.01 4.02 2.54 1.6 0.0 0.0 0.0 0.0 0.0 0.0 0.0 0.0 0.0 0.0 0.0 0.0 0.0 0.0 0.0 0.0 0.0 0.0 0.0 0.0 0.0 0.0 0.0 0.0 0.0 0.0 0.0 0.0 0.0 0.0 0.0 0.0 0.0 0.0 0.0 0.0 0.0 0.0 0.0 0.0 0.0 0.0 0.0 0.0 0.0 0.0 0.0 0.0 0.0 0.0 0.0 0.0 0.0 0.0 0.0 0.0 0.0 0.0 0.0 0.0 0.0 0.0 0.0 0.0 0.0 0.0 0.0 7.25 7.95 7.68 8.0 8.63 9.01 8.93 7.14 6.35 5.57 7.14 8.47 10.1 11.2 12.07 12.0 11.66 12.28 12.73 12.8 12.94 13.09 11.62 8.41 5.68 0.0 0.0 14.61 17.0 18.13 18.79 19.25 19.82 20.28 20.27 19.7 19.52 20.53 21.34 20.92 20.02 18.59 18.38 18.57 18.77 18.73 18.78 18.77 18.21 18.13 18.68 18.86 18.8 19.85 20.48 23.46 23.56 23.81 21.56 21.03 20.39 20.03 19.89 19.9 19.89 19.71 18.86 16.0 9.94 11.37 20.2 17.76 17.7 29.21 27.25 25.18 20.11 20.13 26.85 19.48 18.16 17.64 17.82 17.75 18.38 19.19 19.82 19.93 20.29 20.76 20.29 19.6 19.43 19.52 19.5 19.3 18.98 19.06 18.68 19.38 19.07 18.57 19.55 22.58 22.42 18.97 15.77 14.0 12.28 11.02 10.54 10.42 10.23 10.32 10.52 10.56 10.58 10.78 11.15 12.1 13.16 13.27 11.54 9.47 8.69 9.3 11.23 13.14 12.48 12.25 13.06 14.29 13.75 13.06 12.84 12.85 12.81 12.98 13.17 13.14 13.02 12.99 12.87 13.18 12.74 11.88 11.47 10.81 10.36 9.94 9.62 9.47 9.3 9.35 9.83 9.85 9.64 9.47 9.07 8.73 8.54 8.44 8.29 7.68 7.09 7.69 9.94 13.94 17.65 22.71 39.89 50.73 52.98 53.41 52.41 54.83 56.25 58.05 63.24 72.21 74.17 74.4 69.36 51.57 43.11 42.27 42.79 43.06 44.0 44.48 45.92 48.06 46.73 44.46 42.68 40.31 38.71 38.2 39.19 40.47 44.65 40.74 35.28 36.49 42.15 41.09 36.28 38.68 42.64 44.96 43.27 42.72 42.71 43.32 44.91 52.23 52.23 52.23 52.23 52.23
52.23 0.0 0.0 0.0 0.0 0.0 0.0 0.0 0.0 0.0 0.0 0.0 0.0 0.0 0.0 0.0 0.0 0.0 0.0 0.0 0.0 0.0 0.0 0.0 0.0 0.0 0.0 0.0 0.0 0.0 0.0 0.0 0.0 0.0 0.0 0.0 0.0 0.0 0.0 0.0 0.0 0.0 0.0 0.0 3.69 5.14 6.42 7.46 7.91 7.62 6.8 6.63 8.74 9.45 5.41 4.25 5.39 6.8 8.17 9.29 10.52 11.95 13.65 15.13 16.81 18.91 20.61 22.24 23.7 24.45 24.02 23.01 22.66 22.45 22.04 21.82 21.67 21.43 21.25 21.15 21.14 21.14 21.15 21.15 21.15 21.17 21.1 21.08 21.08 21.13 21.08 21.14 21.05 20.61 20.02 20.52 21.04 20.47 18.62 17.15 17.81 18.3 18.97 18.99 19.21 19.22 19.93 21.61 24.18 26.1 27.57 28.39 28.77 28.99 28.66 28.45 28.11 27.3 26.19 23.58 20.59 16.14 14.99 13.7 11.89 10.53 8.19 6.53 3.89 0.0 0.0 0.0 0.0 0.0 0.0 0.0 0.0 0.0 0.0 0.0 0.0 0.0 0.0 0.0 0.0 0.0 0.0 0.0 0.0 0.0 0.0 0.0 0.0 0.0 0.0 0.0 0.0 0.0 0.0 0.0 0.0 2.8 6.27 8.18 9.69 6.2 0.0 2.66 2.45 4.51 6.13 6.24 5.16 3.47 0.0 4.11 6.63 8.61 11.78 15.33 16.06 15.5 14.65 9.82 11.51 12.65 13.44 13.8 12.89 10.46 7.66 6.62 3.37 2.6 1.72 1.99 0.0 0.0 0.0 0.0 0.0 0.0 0.0 0.0 0.0 0.0 0.0 0.0 0.0 0.0 0.0 0.0 0.0 0.0 0.0 0.0 0.0 0.0 0.0 0.0 0.0 0.0 0.0 0.0 0.0 0.0 0.0 0.0 0.0 0.0 0.0 0.0 0.0 0.0 0.0 0.0 0.0 0.0 0.0 0.0 0.0 0.0 0.0 0.0 0.0 0.0 0.0 0.0 0.0 0.0 0.0 0.0 0.0 0.0 0.0 0.0 0.0 0.0 0.0 0.0 0.0 0.0 3.33 5.76 6.13 7.01 7.83 8.29 7.66 6.34 6.89 4.78 6.79 7.94 9.6 10.98 11.76 11.61 11.47 12.01 12.37 12.55 12.42 12.33 10.88 7.19 5.99 0.0 10.36 14.79 17.21 18.18 18.83 19.45 20.03 20.18 20.14 19.62 19.4 20.23 21.26 21.41 20.84 19.83 19.11 18.99 19.23 19.09 19.1 19.51 19.06 18.4 18.87 18.99 18.44 19.45 20.3 20.19 23.65 23.43 24.04 21.3 20.7 20.19 20.12 20.12 20.2 20.15 19.95 18.94 14.54 10.86 19.12 17.77 18.05 27.43 27.63 27.15 27.53 26.89 26.21 18.35 17.91 17.5 17.88 17.81 18.05 18.87 20.26 20.22 20.53 21.12 20.58 20.22 20.29 20.45 20.13 19.59 19.69 21.35 20.18 19.53 18.9 20.07 22.17 20.52 17.35 14.65 13.09 12.36 10.58 9.8 9.47 9.3 9.54 9.71 9.77 10.1 9.89 10.19 10.37 10.84 11.56 11.34 8.4 7.8 8.15 8.98 10.28 11.74 12.39 12.2 12.74 13.65 13.86 13.45 12.95 12.98 13.24 13.35 13.38 13.2 13.0 13.07 12.68 13.12 13.13 12.66 11.94 11.6 11.29 10.24 9.85 9.62 9.43 9.82 10.2 10.1 9.77 9.33 9.06 8.43 8.62 7.77 7.65 7.8 8.3 10.54 13.76 16.78 22.34 36.65 57.04 60.53 65.73 78.0 78.0 78.0 78.0 78.0 78.0 78.0 71.72 69.8 60.41 44.72 43.26 44.97 46.14 46.88 47.07 47.49 52.12 55.87 49.78 45.06 41.48 38.58 39.62 43.02 46.54 48.56 50.63 52.77 57.57 63.89 54.98 43.67 37.7 39.52 41.26 43.15 43.51 43.4 43.61 44.3 45.95 52.23 52.23 52.23 52.23 52.23
52.23 0.0 0.0 0.0 0.0 0.0 0.0 0.0 0.0 0.0 0.0 0.0 0.0 0.0 0.0 0.0 0.0 0.0 0.0 0.0 0.0 0.0 0.0 0.0 0.0 0.0 0.0 0.0 0.0 0.0 0.0 0.0 0.0 0.0 0.0 0.0 0.0 0.0 0.0 0.0 0.0 0.0 0.0 2.27 3.77 5.53 6.72 6.47 6.12 5.37 4.6 4.79 8.55 9.96 6.27 4.66 5.75 7.64 8.91 9.74 10.62 12.03 14.03 15.63 17.25 19.09 20.86 22.36 23.47 24.07 23.86 22.87 22.52 22.55 22.22 21.96 21.83 21.61 21.38 21.27 21.26 21.26 21.26 21.26 21.26 21.31 21.27 21.19 21.18 21.26 21.29 21.35 21.3 21.03 20.78 21.11 21.35 21.32 20.59 19.83 19.87 19.76 20.28 20.22 20.19 20.53 21.8 23.76 25.61 26.99 28.09 28.71 28.86 28.78 28.61 28.56 27.72 26.63 24.82 22.48 18.89 14.98 13.46 12.3 10.79 8.68 7.05 5.64 0.0 0.0 0.0 0.0 0.0 0.0 0.0 0.0 0.0 0.0 0.0 0.0 0.0 0.0 0.0 0.0 0.0 0.0 0.0 0.0 0.0 0.0 0.0 0.0 0.0 0.0 0.0 0.0 0.0 0.0 2.34 2.74 4.09 6.46 8.94 5.05 0.0 3.85 0.0 2.89 3.53 5.98 6.25 5.33 4.45 5.25 3.15 0.0 6.38 9.95 13.86 17.42 15.87 14.61 13.48 8.49 7.96 13.25 13.88 13.85 12.79 10.32 8.77 5.91 3.11 2.57 1.42 0.0 0.0 0.0 0.0 0.0 0.0 0.0 0.0 0.0 0.0 0.0 0.0 0.0 0.0 0.0 0.0 0.0 0.0 0.0 0.0 0.0 0.0 0.0 0.0 0.0 0.0 0.0 0.0 0.0 0.0 0.0 0.0 0.0 0.0 0.0 0.0 0.0 0.0 0.0 0.0 0.0 0.0 0.0 0.0 0.0 0.0 0.0 0.0 0.0 0.0 0.0 0.0 0.0 0.0 0.0 0.0 0.0 0.0 0.0 0.0 0.0 0.0 0.0 0.0 0.0 0.0 0.0 0.0 4.61 4.85 4.93 5.42 6.42 7.12 6.86 0.0 0.0 0.0 7.48 9.33 10.53 10.88 11.54 11.15 11.53 11.69 11.94 11.91 11.34 8.39 3.37 0.0 0.0 13.7 15.86 17.44 18.18 18.87 19.53 20.1 20.29 20.43 19.84 19.56 20.04 21.25 21.77 21.45 20.75 20.13 19.53 19.43 19.24 19.29 19.69 19.82 19.18 19.46 19.41 18.38 18.68 19.53 20.04 23.51 23.75 23.91 21.35 20.85 20.52 20.45 20.42 20.41 20.45 20.59 20.32 18.87 17.08 19.06 18.45 19.19 20.19 28.35 29.13 29.88 29.55 28.67 17.83 17.68 17.7 17.51 17.36 17.3 17.67 19.12 20.37 21.0 22.09 21.43 21.25 21.24 21.02 20.62 20.05 19.86 20.43 20.47 20.16 20.25 21.63 18.61 16.19 14.47 13.32 12.91 13.01 9.87 9.12 8.81 8.77 8.94 9.15 9.27 9.28 9.29 9.84 9.8 10.12 10.22 9.92 7.69 7.71 8.53 8.95 9.9 10.8 12.17 12.18 12.59 13.12 13.59 13.46 13.25 12.98 12.93 13.31 13.23 13.34 13.0 12.66 11.86 11.48 12.29 12.67 12.7 12.15 11.45 10.73 10.36 9.89 9.96 9.75 9.26 9.23 9.32 9.11 8.6 8.45 8.41 8.03 8.26 8.69 10.93 14.56 17.98 22.95 40.07 64.32 72.01 67.24 76.94 78.0 78.0 78.0 78.0 78.0 78.0 77.76 66.15 73.04 58.06 47.27 45.89 44.12 42.63 52.33 51.05 50.96 59.09 56.28 44.94 39.8 37.55 36.53 39.24 48.19 53.23 56.21 58.8 64.97 67.96 68.79 53.24 44.83 40.17 40.6 42.41 44.47 45.35 45.09 45.12 45.63 47.08 52.23 52.23 52.23 52.23 52.23
52.23 0.0 0.0 0.0 0.0 0.0 0.0 0.0 0.0 0.0 0.0 0.0 0.0 0.0 0.0 0.0 0.0 0.0 0.0 0.0 0.0 0.0 0.0 0.0 0.0 0.0 0.0 0.0 0.0 0.0 0.0 0.0 0.0 0.0 0.0 0.0 0.0 0.0 0.0 0.0 0.0 0.0 0.0 0.0 3.97 5.68 6.05 5.58 0.0 3.72 3.29 3.76 7.65 10.09 8.63 6.64 6.35 7.91 9.69 11.09 11.6 12.44 14.25 16.12 17.79 19.24 20.89 22.3 23.19 23.65 23.63 22.9 22.4 22.57 22.33 22.02 21.89 21.74 21.58 21.45 21.43 21.39 21.35 21.35 21.37 21.51 21.52 21.43 21.43 21.48 21.52 21.54 21.55 21.39 21.36 21.58 21.69 21.86 21.71 21.33 20.96 20.7 21.08 21.16 21.3 22.05 23.43 25.06 26.32 27.38 28.15 28.55 28.67 28.49 28.61 28.43 27.53 26.15 23.7 20.87 17.55 13.85 12.07 11.01 9.26 7.27 5.97 3.77 0.0 0.0 0.0 0.0 0.0 0.0 0.0 0.0 0.0 0.0 0.0 0.0 0.0 0.0 0.0 0.0 0.0 0.0 0.0 0.0 0.0 0.0 0.0 0.0 0.0 0.0 0.0 0.0 0.0 3.4 4.75 6.26 8.0 8.19 4.49 0.0 0.0 0.0 3.37 4.74 5.74 6.38 4.42 5.23 5.95 7.31 6.33 5.24 7.83 11.67 14.0 17.19 13.97 14.11 13.44 8.83 9.14 13.44 13.77 13.6 12.66 10.47 9.18 5.33 3.45 2.48 1.13 0.0 0.0 0.0 0.0 0.0 0.0 0.0 0.0 0.0 0.0 0.0 0.0 0.0 0.0 0.0 0.0 0.0 0.0 0.0 0.0 0.0 0.0 0.0 0.0 0.0 0.0 0.0 0.0 0.0 0.0 0.0 0.0 0.0 0.0 0.0 0.0 0.0 0.0 0.0 0.0 0.0 0.0 0.0 0.0 0.0 0.0 0.0 0.0 0.0 0.0 0.0 0.0 0.0 0.0 0.0 0.0 0.0 0.0 0.0 0.0 0.0 0.0 0.0 0.0 0.0 0.0 0.0 0.0 0.0 0.0 0.0 0.0 0.0 0.0 0.0 0.0 0.0 6.2 7.4 9.31 10.51 10.01 11.16 11.38 11.43 10.91 11.36 11.34 10.74 7.32 5.1 0.0 0.0 15.25 16.61 17.51 17.85 18.81 19.58 20.03 20.34 20.77 20.33 19.96 20.02 20.85 21.45 21.77 21.3 20.87 20.07 19.76 19.52 19.64 19.94 19.97 19.38 19.84 19.56 18.97 18.89 19.32 19.9 19.92 23.64 23.88 24.05 20.91 20.74 20.74 20.79 20.72 20.74 20.83 20.66 19.67 18.14 18.23 18.99 19.74 19.39 18.9 26.95 27.15 28.27 28.99 27.4 17.84 17.44 17.02 17.03 17.2 17.67 18.96 20.45 21.42 22.94 22.3 22.29 22.63 21.42 20.62 20.18 20.45 20.68 20.93 20.4 21.01 18.61 16.7 15.49 13.94 13.33 13.66 12.41 10.37 9.09 8.26 7.89 7.9 8.07 8.27 8.45 8.54 8.61 8.63 8.79 7.72 8.28 7.52 7.7 8.48 9.31 10.3 10.9 11.83 11.98 12.33 12.67 13.03 13.2 13.31 12.95 12.72 12.85 13.04 13.1 12.85 12.37 11.8 11.11 11.03 11.77 11.95 11.8 11.12 11.06 10.35 9.97 9.9 9.43 8.91 8.76 8.6 8.64 8.31 8.94 8.56 8.82 10.12 12.99 17.31 22.36 27.79 40.67 67.56 78.0 72.71 66.41 77.88 78.0 78.0 77.81 78.0 78.0 78.0 78.0 73.73 67.05 58.52 50.44 42.85 32.89 42.0 59.48 57.5 58.1 65.74 54.19 41.03 36.99 36.81 37.55 45.34 55.94 56.64 57.02 58.4 60.63 56.26 50.82 37.51 39.72 40.13 41.81 44.03 46.27 47.19 46.84 46.7 46.99 48.19 52.23 52.23 52.23 52.23 52.23
52.23 0.0 0.0 0.0 0.0 0.0 0.0 0.0 0.0 0.0 0.0 0.0 0.0 0.0 0.0 0.0 0.0 0.0 0.0 0.0 0.0 0.0 0.0 0.0 0.0 0.0 0.0 0.0 0.0 0.0 0.0 0.0 0.0 0.0 0.0 0.0 0.0 0.0 0.0 0.0 0.0 0.0 0.0 0.0 4.08 5.56 5.09 0.0 0.0 0.0 0.0 0.0 6.6 9.03 10.58 9.43 7.83 7.72 9.79 12.52 13.32 13.63 14.6 16.43 18.26 19.52 20.85 22.12 22.89 23.25 23.35 22.91 22.2 22.44 22.37 22.08 21.91 21.84 21.82 21.69 21.64 21.58 21.52 21.52 21.54 21.72 21.8 21.79 21.77 21.8 21.8 21.75 21.84 21.76 21.83 22.02 22.2 22.37 22.38 22.18 21.78 21.57 21.85 22.09 22.56 23.52 24.69 25.8 26.68 27.55 27.91 28.08 28.29 28.28 28.68 28.1 27.12 25.41 22.26 18.44 14.9 12.68 10.9 9.49 7.71 6.06 5.37 0.0 0.0 0.0 0.0 0.0 0.0 0.0 0.0 0.0 0.0 0.0 0.0 0.0 0.0 0.0 0.0 0.0 0.0 0.0 0.0 0.0 0.0 0.0 0.0 0.0 0.0 0.0 0.0 0.0 0.0 4.13 5.66 6.95 4.28 4.41 0.0 0.0 0.0 2.63 3.82 4.54 5.86 5.21 2.76 5.2 6.22 7.75 9.52 10.27 12.26 13.32 15.72 16.45 10.71 13.38 13.46 11.3 12.81 13.48 13.49 13.29 12.52 10.23 9.43 5.59 4.26 2.87 1.1 0.72 0.0 0.0 0.0 0.0 0.0 0.0 0.0 0.0 0.0 0.0 0.0 0.0 0.0 0.0 0.0 0.0 0.0 0.0 0.0 0.0 0.0 0.0 0.0 0.0 0.0 0.0 0.0 0.0 0.0 0.0 0.0 0.0 0.0 0.0 0.0 0.0 0.0 0.0 0.0 0.0 0.0 0.0 0.0 0.0 0.0 0.0 0.0 0.0 0.0 0.0 0.0 0.0 0.0 0.0 0.0 0.0 0.0 0.0 0.0 0.0 0.0 0.0 0.0 0.0 0.0 0.0 0.0 0.0 0.0 0.0 0.0 0.0 0.0 0.0 0.0 4.01 5.58 7.06 8.65 9.89 9.16 10.27 10.89 11.24 10.72 10.39 10.46 9.6 6.46 7.74 0.0 12.28 15.05 16.14 16.99 17.79 18.79 19.44 19.84 20.25 20.78 20.44 20.14 19.97 20.66 21.18 21.47 21.45 21.24 20.72 20.17 20.09 20.14 20.27 20.14 19.99 20.32 20.13 19.48 19.3 19.48 19.6 19.39 23.52 24.09 24.39 20.81 20.68 20.86 20.95 21.09 21.16 21.19 21.16 20.3 18.87 18.49 18.98 19.63 19.99 19.02 25.18 24.93 26.07 27.87 28.88 18.71 17.66 17.19 17.31 17.57 18.01 19.29 20.49 21.41 23.63 22.88 22.95 23.58 22.48 21.39 20.62 21.02 21.28 21.93 19.9 18.75 17.32 16.28 15.01 14.09 14.45 13.42 11.6 9.98 8.67 7.8 7.17 7.39 7.42 7.7 7.78 7.98 7.94 7.85 7.79 7.5 7.47 7.19 7.49 8.27 9.0 10.42 11.26 11.7 11.62 11.81 12.06 12.23 12.32 12.69 12.64 12.34 12.33 12.57 12.64 12.56 12.1 11.2 10.71 10.47 10.67 10.56 10.51 11.35 11.22 10.82 10.43 9.84 9.16 8.67 8.38 8.47 8.58 9.19 10.94 12.55 15.09 18.09 23.28 28.84 32.57 42.48 62.16 78.0 69.78 70.61 69.6 78.0 78.0 48.21 43.9 59.75 70.36 78.0 78.0 78.0 73.44 57.73 48.36 45.33 42.73 54.97 66.58 61.31 59.07 70.01 49.54 34.28 29.96 34.95 45.4 60.59 59.9 55.79 54.38 53.46 51.85 45.88 44.24 41.01 40.71 40.99 42.98 45.27 47.55 48.57 48.34 48.15 48.2 49.11 52.23 52.23 52.23 52.23 52.23
52.23 0.0 0.0 0.0 0.0 0.0 0.0 0.0 0.0 0.0 0.0 0.0 0.0 0.0 0.0 0.0 0.0 0.0 0.0 0.0 0.0 0.0 0.0 0.0 0.0 0.0 0.0 0.0 0.0 0.0 0.0 0.0 0.0 0.0 0.0 0.0 0.0 0.0 0.0 0.0 0.0 0.0 2.05 3.2 4.53 5.46 4.43 0.0 0.0 0.0 0.0 0.0 0.0 6.85 9.8 10.86 10.22 8.36 8.85 12.23 14.54 15.44 15.6 16.77 18.48 19.9 21.06 22.05 22.64 22.9 23.04 22.72 22.02 22.27 22.42 22.22 21.99 21.95 21.98 21.91 21.84 21.84 21.83 21.83 21.84 21.93 22.1 22.11 22.03 22.11 22.12 22.08 22.15 22.15 22.25 22.41 22.6 22.7 22.76 22.68 22.51 22.43 22.63 22.96 23.59 24.57 25.45 26.27 26.94 27.61 27.7 27.67 27.87 28.21 28.12 27.51 26.08 23.41 20.08 16.12 12.9 11.39 10.26 8.69 6.71 4.61 3.05 0.0 0.0 0.0 0.0 0.0 0.0 0.0 0.0 0.0 0.0 0.0 0.0 0.0 0.0 0.0 0.0 0.0 0.0 0.0 0.0 0.0 0.0 0.0 0.0 0.0 0.0 0.0 0.0 0.0 2.24 4.11 5.17 5.53 4.67 3.01 0.0 0.0 0.0 0.0 0.0 3.71 5.51 3.8 3.31 5.63 5.47 6.34 9.44 12.07 12.41 13.85 15.57 15.84 10.96 13.44 13.58 13.0 13.16 12.67 13.3 12.99 12.48 10.71 8.94 6.24 4.57 3.02 1.66 1.5 0.0 0.0 0.0 0.0 0.0 0.0 0.0 0.0 0.0 0.0 0.0 0.0 0.0 0.0 0.0 0.0 0.0 0.0 0.0 0.0 0.0 0.0 0.0 0.0 0.0 0.0 0.0 0.0 0.0 0.0 0.0 0.0 0.0 0.0 0.0 0.0 0.0 0.0 0.0 0.0 0.0 0.0 0.0 0.0 0.0 0.0 0.0 0.0 0.0 0.0 0.0 0.0 0.0 0.0 0.0 0.0 0.0 0.0 0.0 0.0 0.0 0.0 0.0 0.0 0.0 0.0 0.0 0.0 0.0 0.0 0.0 0.0 0.0 0.0 0.0 3.43 5.38 6.97 8.26 8.9 8.21 9.42 10.11 11.04 11.08 10.18 9.8 8.55 5.38 0.0 0.0 12.92 15.03 15.75 17.0 17.96 18.72 19.09 19.13 19.81 20.59 20.41 20.02 20.23 20.68 20.81 21.32 21.32 21.4 21.1 20.43 20.36 20.48 20.5 20.31 20.34 20.49 20.54 20.05 19.66 19.64 19.53 19.58 23.66 24.41 24.55 20.85 20.57 20.64 21.2 21.4 21.57 21.73 21.49 20.93 19.65 18.7 19.25 20.76 21.33 19.44 20.31 20.36 19.45 25.63 28.78 29.55 18.33 17.99 17.97 18.27 18.7 19.51 20.45 22.11 24.43 23.53 23.64 24.14 22.55 22.17 21.07 21.69 22.19 20.65 18.65 18.08 16.83 15.69 14.78 14.01 14.08 12.72 10.99 9.49 8.1 7.56 7.2 7.01 6.4 6.98 6.66 7.31 7.38 7.11 6.94 6.28 6.08 6.43 7.01 7.91 8.82 10.44 11.39 11.69 11.7 11.85 12.03 12.18 12.06 12.44 12.64 12.47 12.36 12.41 12.41 12.31 12.04 11.32 11.26 10.39 10.48 11.22 10.62 10.88 10.44 10.5 10.16 9.86 8.79 8.63 7.93 7.82 9.38 12.79 16.38 20.18 25.06 30.58 35.75 41.36 51.97 67.86 71.92 60.77 61.41 66.72 72.13 78.0 78.0 53.43 41.23 52.93 64.98 74.0 78.0 78.0 78.0 78.0 75.27 70.05 66.91 70.76 67.61 61.52 61.02 68.62 49.46 34.98 28.89 35.06 64.4 69.11 59.44 55.37 54.56 51.82 49.49 44.84 42.95 41.77 41.23 42.04 44.12 46.43 48.68 49.79 49.76 49.56 49.4 50.02 52.23 52.23 52.23 52.23 52.23
64.4 0.0 0.0 0.0 0.0 0.0 0.0 0.0 0.0 0.0 0.0 0.0 0.0 0.0 0.0 0.0 0.0 0.0 0.0 0.0 0.0 0.0 0.0 0.0 0.0 0.0 0.0 0.0 0.0 0.0 0.0 0.0 0.0 0.0 0.0 0.0 0.0 0.0 0.0 0.0 0.0 2.77 2.83 3.43 4.04 5.06 0.0 0.0 0.0 0.0 0.0 0.0 0.0 4.7 6.95 9.15 10.27 9.51 8.51 10.75 13.94 16.67 17.3 17.5 18.42 19.83 21.04 21.93 22.41 22.69 22.89 22.89 22.54 22.58 22.7 22.48 22.27 22.17 22.11 22.07 22.07 22.12 22.13 22.13 22.13 22.13 22.35 22.36 22.25 22.37 22.47 22.53 22.54 22.55 22.63 22.69 22.84 22.88 22.9 22.89 22.93 22.96 23.18 23.59 24.31 25.1 25.7 26.45 27.14 27.62 27.59 27.52 27.53 28.05 27.48 26.57 24.73 21.92 18.42 13.89 11.71 10.16 9.12 7.37 5.14 3.25 0.0 0.0 0.0 0.0 0.0 0.0 0.0 0.0 0.0 0.0 0.0 0.0 0.0 0.0 0.0 0.0 0.0 0.0 0.0 0.0 0.0 0.0 0.0 0.0 0.0 0.0 0.0 0.0 0.0 2.77 2.24 3.53 5.69 4.98 4.98 4.19 3.21 0.0 0.0 0.0 0.0 3.62 4.39 4.78 6.98 7.71 6.31 5.54 7.43 12.1 12.97 14.58 15.17 15.16 11.45 12.77 13.39 13.05 13.06 12.35 12.73 12.28 12.32 11.65 9.84 7.4 4.82 0.0 0.0 0.0 0.0 0.0 0.0 0.0 0.0 0.0 0.0 0.0 0.0 0.0 0.0 0.0 0.0 0.0 0.0 0.0 0.0 0.0 0.0 0.0 0.0 0.0 0.0 0.0 0.0 0.0 0.0 0.0 0.0 0.0 0.0 0.0 0.0 0.0 0.0 0.0 0.0 0.0 0.0 0.0 0.0 0.0 0.0 0.0 0.0 0.0 0.0 0.0 0.0 0.0 0.0 0.0 0.0 0.0 0.0 0.0 0.0 0.0 0.0 0.0 0.0 0.0 0.0 0.0 0.0 0.0 0.0 0.0 0.0 0.0 0.0 0.0 0.0 0.0 0.0 0.0 5.16 7.48 7.68 8.13 7.76 9.3 10.11 10.64 10.87 10.31 9.21 7.4 3.32 0.0 0.0 13.6 14.69 14.67 16.6 18.01 18.57 18.61 18.51 19.53 20.66 21.0 20.78 20.96 21.2 21.19 21.54 21.49 21.42 21.43 20.96 20.91 21.09 21.0 20.89 20.94 20.98 21.08 20.84 20.55 20.42 20.25 20.34 24.1 24.8 24.78 20.79 20.6 20.42 20.69 21.15 21.68 22.16 21.85 21.81 20.43 19.36 19.93 22.31 20.96 19.73 20.28 20.7 19.93 22.72 27.87 29.25 18.78 18.26 18.39 18.76 19.24 19.96 20.73 22.55 24.73 23.98 24.38 24.78 23.44 22.36 21.8 22.22 21.29 19.74 18.3 17.85 16.18 15.31 14.67 14.23 13.85 12.35 10.54 8.85 6.58 6.92 6.97 6.72 6.59 6.72 6.7 6.84 6.68 5.94 5.75 3.66 5.86 6.6 7.07 7.92 9.33 10.71 11.46 11.85 12.06 12.1 12.19 12.29 12.21 12.44 12.66 12.69 12.59 12.6 12.48 12.26 12.08 11.7 11.4 11.32 10.81 10.83 10.82 10.78 10.48 9.97 10.05 9.15 8.95 8.91 8.23 9.06 13.56 17.74 22.7 28.02 33.22 37.88 45.3 58.83 78.0 71.43 61.14 64.68 68.86 70.35 78.0 78.0 78.0 68.47 64.0 64.16 72.96 77.38 78.0 78.0 78.0 78.0 78.0 78.0 78.0 78.0 70.99 64.86 61.96 60.26 50.43 43.97 36.81 50.77 78.0 68.92 58.88 57.42 55.41 48.65 46.5 44.92 43.8 43.2 43.22 44.07 45.69 47.58 49.56 50.69 50.93 50.9 50.76 52.44 64.4 64.4 64.4 64.4 64.4
64.4 0.0 0.0 0.0 0.0 0.0 0.0 0.0 0.0 0.0 0.0 0.0 0.0 0.0 0.0 0.0 0.0 0.0 0.0 0.0 0.0 0.0 0.0 0.0 0.0 0.0 0.0 0.0 0.0 0.0 0.0 0.0 0.0 0.0 0.0 0.0 0.0 0.0 0.0 0.0 1.68 2.35 2.86 3.58 4.03 4.06 2.3 1.19 0.91 0.81 0.0 0.0 0.0 0.0 4.67 6.42 8.37 9.38 9.18 10.6 13.23 16.02 17.76 18.34 18.61 19.56 20.77 21.59 22.07 22.38 22.59 22.85 22.87 22.83 22.83 22.65 22.5 22.36 22.29 22.13 22.16 22.13 22.13 22.13 22.21 22.33 22.6 22.68 22.65 22.71 22.79 22.87 22.82 22.76 22.85 22.92 22.98 23.04 23.05 23.07 23.17 23.39 23.74 24.21 24.87 25.39 25.8 26.44 27.14 27.48 27.45 27.56 27.64 27.58 26.75 25.17 22.62 19.82 16.24 12.01 10.01 9.08 7.98 6.21 4.34 0.0 0.0 0.0 0.0 0.0 0.0 0.0 0.0 0.0 0.0 0.0 0.0 0.0 0.0 0.0 0.0 0.0 0.0 0.0 0.0 0.0 0.0 0.0 0.0 0.0 0.0 0.0 0.0 0.0 0.0 1.9 2.13 5.04 7.14 4.7 4.31 4.72 4.43 2.68 0.0 0.0 0.0 3.15 4.92 8.23 10.37 10.78 9.49 8.85 7.27 11.14 13.83 14.68 14.59 15.22 12.25 9.83 12.69 11.71 12.59 11.69 13.11 12.31 12.51 11.44 9.24 6.44 4.25 0.0 0.0 0.0 0.0 0.0 0.0 0.0 0.0 0.0 0.0 0.0 0.0 0.0 0.0 0.0 0.0 0.0 0.0 0.0 0.0 0.0 0.0 0.0 0.0 0.0 0.0 0.0 0.0 0.0 0.0 0.0 0.0 0.0 0.0 0.0 0.0 0.0 0.0 0.0 0.0 0.0 0.0 0.0 0.0 0.0 0.0 0.0 0.0 0.0 0.0 0.0 0.0 0.0 0.0 0.0 0.0 0.0 0.0 0.0 0.0 0.0 0.0 0.0 0.0 0.0 0.0 0.0 0.0 0.0 0.0 0.0 0.0 0.0 0.0 0.0 0.0 0.0 0.0 0.0 4.81 7.44 7.54 7.47 7.35 9.19 9.54 10.32 9.86 10.14 9.71 7.19 3.37 0.0 0.0 13.27 15.24 15.78 16.42 17.37 18.04 18.73 18.64 19.47 20.38 21.29 21.12 21.29 21.55 21.62 21.83 22.12 21.59 21.66 21.54 21.43 21.65 21.62 21.5 21.48 21.4 21.55 21.51 21.37 21.17 20.84 21.02 24.46 25.14 25.55 20.9 20.33 19.73 19.62 20.1 20.65 20.48 20.35 21.4 21.45 19.99 20.02 22.17 20.63 19.96 20.11 21.09 20.56 20.82 27.82 28.61 27.66 18.04 18.15 18.65 19.45 20.24 21.23 22.61 24.24 24.05 24.61 25.17 24.63 23.28 23.63 22.48 22.18 19.37 18.15 17.57 15.75 15.33 15.28 15.24 14.12 12.29 10.24 8.47 6.26 5.99 6.44 5.94 6.18 6.19 6.23 6.22 6.1 5.64 5.36 5.42 6.28 6.85 7.41 8.89 10.12 11.01 11.55 11.95 11.97 12.04 12.19 12.2 12.14 12.18 12.38 12.43 12.46 12.45 12.29 12.13 11.96 11.77 11.5 11.25 11.0 10.76 10.7 10.26 9.79 9.34 9.75 8.94 9.1 8.94 9.79 13.68 17.63 21.17 25.71 31.82 39.35 46.19 62.47 73.64 69.94 61.05 67.55 70.15 68.98 70.55 75.77 77.27 68.35 64.47 66.87 68.1 72.16 70.46 65.06 75.26 78.0 78.0 78.0 78.0 78.0 78.0 78.0 78.0 72.84 66.67 62.64 59.12 57.74 63.82 78.0 69.53 57.63 53.03 51.02 48.64 47.36 46.62 46.42 46.46 46.68 47.08 47.69 48.76 50.22 51.29 51.89 52.18 52.28 53.97 64.4 64.4 64.4 64.4 64.4
64.4 0.0 0.0 0.0 0.0 0.0 0.0 0.0 0.0 0.0 0.0 0.0 0.0 0.0 0.0 0.0 0.0 0.0 0.0 0.0 0.0 0.0 0.0 0.0 0.0 0.0 0.0 0.0 0.0 0.0 0.0 0.0 0.0 0.0 0.0 0.0 0.0 0.0 0.0 0.0 0.0 1.87 2.54 3.44 3.88 3.4 0.0 0.0 0.0 0.0 0.0 0.0 0.0 0.0 3.24 5.19 6.71 8.52 9.88 9.95 11.35 13.4 15.83 17.96 19.01 19.77 20.64 21.23 21.63 21.93 22.11 22.44 22.92 22.99 22.79 22.69 22.61 22.52 22.43 22.18 22.2 22.11 22.12 22.11 22.28 22.5 22.84 22.96 23.01 23.02 23.07 23.1 23.01 22.9 23.02 23.1 23.08 23.15 23.21 23.28 23.46 23.85 24.28 24.69 25.17 25.5 25.86 26.4 27.01 27.25 27.37 27.25 27.3 26.84 25.63 22.76 20.63 17.49 13.71 10.82 8.85 8.17 6.36 5.4 0.0 0.0 0.0 0.0 0.0 0.0 0.0 0.0 0.0 0.0 0.0 0.0 0.0 0.0 0.0 0.0 0.0 0.0 0.0 0.0 0.0 0.0 0.0 0.0 0.0 0.0 0.0 0.0 0.0 0.0 0.0 3.08 4.32 8.92 5.45 2.72 2.37 3.54 4.13 3.09 0.0 0.0 0.0 4.68 8.38 10.45 11.01 11.62 12.22 12.91 11.91 12.86 14.13 14.27 14.15 14.65 12.51 9.24 11.81 9.25 11.16 10.52 13.0 12.79 12.61 11.1 10.95 8.64 5.06 0.0 0.0 0.0 0.0 0.0 0.0 0.0 0.0 0.0 0.0 0.0 0.0 0.0 0.0 0.0 0.0 0.0 0.0 0.0 0.0 0.0 0.0 0.0 0.0 0.0 0.0 0.0 0.0 0.0 0.0 0.0 0.0 0.0 0.0 0.0 0.0 0.0 0.0 0.0 0.0 0.0 0.0 0.0 0.0 0.0 0.0 0.0 0.0 0.0 0.0 0.0 0.0 0.0 0.0 0.0 0.0 0.0 0.0 0.0 0.0 0.0 0.0 0.0 0.0 0.0 0.0 0.0 0.0 0.0 0.0 0.0 0.0 0.0 0.0 0.0 0.0 0.0 0.0 0.0 0.0 6.4 7.12 7.55 6.72 7.67 8.78 10.67 9.39 8.95 9.82 6.39 2.66 0.0 0.0 12.8 15.13 15.54 14.95 15.48 17.49 18.41 18.92 19.64 20.37 21.35 21.24 21.46 21.73 21.8 22.15 22.51 22.26 22.27 22.07 21.61 21.92 22.2 22.16 22.12 21.86 21.86 22.01 22.07 21.88 21.42 21.85 24.62 25.22 25.53 21.02 20.1 19.17 18.73 18.74 19.3 19.5 19.43 19.39 20.33 21.68 20.74 21.17 20.55 20.13 20.09 20.86 21.05 21.16 26.44 28.04 27.6 26.1 18.99 18.61 19.27 20.5 21.65 22.75 24.44 25.05 25.54 25.35 24.79 24.4 25.01 24.91 24.49 21.11 19.76 19.22 17.8 16.6 16.15 15.95 14.47 12.33 9.99 8.24 6.99 6.4 6.32 6.0 5.62 5.67 5.65 5.61 5.51 5.01 3.31 5.31 6.44 7.58 8.58 9.83 10.52 11.06 11.55 11.93 11.97 12.17 12.28 12.34 12.41 12.38 12.38 12.41 12.43 12.36 12.18 12.01 11.86 11.73 11.34 11.07 11.08 10.66 10.25 10.1 9.9 9.53 9.26 9.09 8.93 9.89 12.86 15.44 19.54 23.32 26.64 34.62 51.49 69.11 76.23 66.98 66.93 78.0 73.59 66.58 65.65 65.7 63.69 63.65 60.01 58.05 57.96 59.89 61.25 58.84 52.25 64.06 78.0 78.0 77.84 77.53 77.98 78.0 78.0 78.0 77.02 73.91 73.26 73.72 77.15 78.0 78.0 62.53 57.3 54.76 52.28 50.29 48.97 48.69 49.36 49.9 50.16 50.05 49.7 50.0 51.0 52.06 53.07 53.74 54.13 55.85 64.4 64.4 64.4 64.4 64.4
64.4 0.0 0.0 0.0 0.0 0.0 0.0 0.0 0.0 0.0 0.0 0.0 0.0 0.0 0.0 0.0 0.0 0.0 0.0 0.0 0.0 0.0 0.0 0.0 0.0 0.0 0.0 0.0 0.0 0.0 0.0 0.0 0.0 0.0 0.0 0.0 0.0 0.0 0.0 0.0 0.0 0.0 2.41 3.01 3.23 2.46 1.24 0.0 0.0 0.0 0.0 0.0 0.0 0.0 2.61 5.23 6.57 7.82 8.86 8.16 9.09 10.77 13.3 16.37 18.51 19.66 20.3 20.69 21.08 21.39 21.56 21.86 22.76 23.07 22.71 22.71 22.74 22.72 22.62 22.44 22.49 22.42 22.44 22.43 22.6 22.78 23.06 23.17 23.23 23.24 23.28 23.28 23.22 23.11 23.22 23.27 23.24 23.25 23.31 23.46 23.79 24.28 24.69 24.97 25.28 25.47 25.77 26.22 26.63 26.91 27.12 26.91 26.57 25.95 24.37 21.45 18.54 14.83 11.29 9.11 8.15 7.63 5.31 0.0 1.0 0.0 0.0 0.0 0.0 0.0 0.0 0.0 0.0 0.0 0.0 0.0 0.0 0.0 0.0 0.0 0.0 0.0 0.0 0.0 0.0 0.0 0.0 0.0 0.0 0.0 0.0 0.0 0.0 0.0 0.0 4.91 5.3 4.12 2.64 1.85 1.82 2.38 3.22 3.2 0.0 0.0 6.54 8.88 9.09 9.93 10.61 9.92 9.24 12.48 13.58 13.82 13.96 13.79 13.87 14.19 11.22 6.42 8.95 7.3 11.55 11.79 12.82 12.61 12.26 10.36 11.01 9.22 5.14 0.0 0.0 0.0 0.0 0.0 0.0 0.0 0.0 0.0 0.0 0.0 0.0 0.0 0.0 0.0 0.0 0.0 0.0 0.0 0.0 0.0 0.0 0.0 0.0 0.0 0.0 0.0 0.0 0.0 0.0 0.0 0.0 0.0 0.0 0.0 0.0 0.0 0.0 0.0 0.0 0.0 0.0 0.0 0.0 0.0 0.0 0.0 0.0 0.0 0.0 0.0 0.0 0.0 0.0 0.0 0.0 0.0 0.0 0.0 0.0 0.0 0.0 0.0 0.0 0.0 0.0 0.0 0.0 0.0 0.0 0.0 0.0 0.0 0.0 0.0 0.0 0.0 0.0 0.0 0.0 5.35 6.47 6.94 6.67 7.37 8.69 9.04 7.72 8.77 9.61 5.92 3.43 0.0 0.0 12.48 14.55 14.84 14.99 16.03 17.47 18.18 18.92 19.68 20.25 21.05 21.27 21.42 21.53 21.86 22.23 22.52 22.52 22.28 22.44 21.89 21.7 22.23 22.48 22.4 22.17 22.07 22.19 22.32 22.2 21.9 22.24 24.67 25.23 26.34 21.12 20.16 18.89 17.85 17.1 17.34 18.53 18.68 18.29 19.62 21.12 21.32 21.02 20.81 20.55 20.24 20.73 20.86 20.88 25.67 27.45 27.74 26.85 22.74 20.87 20.27 21.3 22.8 23.68 24.88 26.56 26.43 25.29 25.64 25.31 25.43 26.06 26.68 26.33 24.98 22.6 21.04 19.02 17.56 16.31 15.07 12.65 9.93 7.99 6.77 6.02 5.76 5.44 4.18 4.98 5.15 5.09 5.01 4.68 4.75 5.88 7.51 8.67 9.65 10.51 10.94 11.22 11.61 11.94 12.12 12.3 12.49 12.65 12.77 12.78 12.71 12.74 12.65 12.54 12.33 12.11 11.84 11.73 11.47 11.23 10.9 10.85 10.2 9.96 9.64 9.6 8.79 9.51 10.57 12.4 14.77 18.21 21.97 24.01 33.4 54.99 78.0 78.0 72.37 70.17 75.73 70.41 67.22 61.2 57.47 50.65 45.99 61.08 58.38 55.24 54.41 55.92 58.77 61.41 55.06 56.12 78.0 78.0 77.54 77.83 77.65 73.1 72.01 72.31 72.75 73.41 75.58 76.51 66.99 66.48 67.71 64.36 61.03 57.5 54.21 52.17 51.47 51.75 52.8 53.27 53.05 52.42 51.57 51.55 52.43 53.75 55.37 56.55 57.33 59.0 64.4 64.4 64.4 64.4 64.4
64.4 0.0 0.0 0.0 0.0 0.0 0.0 0.0 0.0 0.0 0.0 0.0 0.0 0.0 0.0 0.0 0.0 0.0 0.0 0.0 0.0 0.0 0.0 0.0 0.0 0.0 0.0 0.0 0.0 0.0 0.0 0.0 0.0 0.0 0.0 0.0 0.0 0.0 0.0 0.0 0.0 0.0 2.46 0.0 2.54 2.01 1.19 0.0 0.0 0.0 0.0 0.0 0.0 0.0 2.37 5.14 6.59 6.92 6.52 6.15 7.46 9.31 11.68 14.65 17.27 18.97 19.6 19.84 20.34 20.78 21.06 21.3 22.39 23.17 22.86 22.91 22.99 22.94 22.86 22.83 22.91 22.94 22.94 22.95 23.05 23.13 23.27 23.35 23.38 23.37 23.47 23.51 23.46 23.36 23.43 23.45 23.43 23.37 23.38 23.61 24.08 24.6 24.9 25.09 25.29 25.41 25.55 25.81 25.97 26.82 26.79 26.57 25.93 24.31 21.82 19.49 15.87 12.6 9.81 7.96 7.23 5.89 3.69 0.0 0.95 0.82 0.0 0.0 0.0 0.0 0.0 0.0 0.0 0.0 0.0 0.0 0.0 0.0 0.0 0.0 0.0 0.0 0.0 0.0 0.0 0.0 0.0 0.0 0.0 0.0 0.0 0.0 1.84 3.09 4.06 4.41 3.74 0.0 0.0 0.0 0.0 2.96 2.56 3.26 4.72 5.97 7.46 7.91 5.76 6.41 7.17 7.02 9.76 12.94 12.97 12.89 12.9 12.99 13.38 13.54 10.77 5.61 8.89 7.28 11.83 12.57 12.57 12.39 12.12 10.85 11.41 7.99 4.78 0.0 0.0 0.0 0.0 0.0 0.0 0.0 0.0 0.0 0.0 0.0 0.0 0.0 0.0 0.0 0.0 0.0 0.0 0.0 0.0 0.0 0.0 0.0 0.0 0.0 0.0 0.0 0.0 0.0 0.0 0.0 0.0 0.0 0.0 0.0 0.0 0.0 0.0 0.0 0.0 0.0 0.0 0.0 0.0 0.0 0.0 0.0 0.0 0.0 0.0 0.0 0.0 0.0 0.0 0.0 0.0 0.0 0.0 0.0 0.0 0.0 0.0 0.0 0.0 0.0 0.0 0.0 0.0 0.0 0.0 0.0 0.0 0.0 0.0 0.0 0.0 0.0 0.0 0.0 0.0 4.3 5.71 6.45 7.0 6.42 7.34 6.85 6.65 9.34 9.06 4.91 0.0 0.0 0.0 13.8 15.08 15.32 15.8 16.73 17.67 18.08 19.01 19.62 20.08 20.66 21.2 21.47 21.36 22.0 22.34 22.35 22.4 22.35 22.45 22.33 21.58 21.75 22.49 22.57 22.45 22.13 22.22 22.55 22.58 22.42 22.68 24.72 24.95 26.38 24.66 20.37 18.95 17.32 15.32 14.92 17.38 18.28 18.44 19.46 20.84 21.6 21.27 20.97 20.22 19.79 20.01 20.58 20.81 25.33 26.78 27.56 27.2 24.7 23.52 23.32 23.48 23.8 24.67 25.69 27.74 27.65 25.28 26.27 27.17 25.21 26.26 27.02 27.14 26.75 25.54 24.37 23.14 20.85 17.75 15.86 13.07 9.98 7.84 6.53 5.3 4.55 4.92 4.67 4.62 4.67 4.65 4.25 2.73 4.79 6.54 7.89 9.48 10.44 11.04 11.38 11.51 11.79 12.02 12.26 12.56 12.78 13.04 13.12 13.2 13.2 13.19 13.1 12.95 12.75 12.5 12.11 11.85 11.59 11.38 11.08 10.92 10.59 10.49 9.3 9.33 10.17 12.08 13.72 15.05 16.96 20.85 24.32 35.96 66.3 78.0 78.0 68.39 65.22 54.97 55.43 45.31 44.97 45.52 36.74 32.92 39.65 63.68 58.17 54.29 54.05 55.24 58.32 62.85 66.16 71.85 78.0 78.0 78.0 78.0 72.01 63.25 62.33 65.19 68.2 70.36 71.92 72.11 69.87 70.39 71.64 69.74 64.66 59.82 55.83 53.84 53.85 54.68 56.01 56.38 55.69 54.64 53.48 53.25 54.08 55.68 57.88 59.54 60.64 62.2 64.4 64.4 64.4 64.4 64.4
64.4 0.0 0.0 0.0 0.0 0.0 0.0 0.0 0.0 0.0 0.0 0.0 0.0 0.0 0.0 0.0 0.0 0.0 0.0 0.0 0.0 0.0 0.0 0.0 0.0 0.0 0.0 0.0 0.0 0.0 0.0 0.0 0.0 0.0 0.0 0.0 0.0 0.0 0.0 0.0 0.0 0.0 0.0 0.0 0.0 0.0 0.0 0.0 0.0 0.0 0.0 0.0 0.0 0.0 0.0 4.06 4.76 5.16 5.08 5.33 6.76 8.65 10.87 13.71 16.38 18.14 18.76 18.86 19.45 20.15 20.61 20.68 21.7 23.29 23.38 23.4 23.34 23.17 23.04 23.01 23.09 23.17 23.18 23.19 23.25 23.32 23.49 23.56 23.61 23.58 23.72 23.8 23.71 23.56 23.62 23.62 23.58 23.51 23.55 23.84 24.31 24.77 25.0 25.14 25.31 25.38 25.35 25.55 25.99 26.56 26.54 26.0 25.02 22.31 19.8 17.21 13.71 10.94 8.25 7.05 6.57 5.13 4.01 0.0 0.91 0.85 0.76 0.0 0.0 0.0 0.0 0.0 0.0 0.0 0.0 0.0 0.0 0.0 0.0 0.0 0.0 0.0 0.0 0.0 0.0 0.0 0.0 0.0 0.0 0.0 0.0 0.0 2.83 3.42 3.81 3.19 2.49 0.0 0.0 0.0 0.0 4.45 4.35 4.88 4.71 3.8 5.05 5.43 2.96 4.27 7.25 9.79 12.84 12.49 12.53 12.41 12.33 12.77 12.93 13.06 12.38 8.34 8.54 7.73 11.88 12.67 12.56 12.45 12.26 11.86 11.62 7.83 4.67 3.03 2.49 0.0 0.0 0.0 0.0 0.0 0.0 0.0 0.0 0.0 0.0 0.0 0.0 0.0 0.0 0.0 0.0 0.0 0.0 0.0 0.0 0.0 0.0 0.0 0.0 0.0 0.0 0.0 0.0 0.0 0.0 0.0 0.0 0.0 0.0 0.0 0.0 0.0 0.0 0.0 0.0 0.0 0.0 0.0 0.0 0.0 0.0 0.0 0.0 0.0 0.0 0.0 0.0 0.0 0.0 0.0 0.0 0.0 0.0 0.0 0.0 0.0 0.0 0.0 0.0 0.0 0.0 0.0 0.0 0.0 0.0 0.0 0.0 0.0 0.0 0.0 0.0 0.0 0.0 3.88 4.62 5.46 6.5 6.07 5.56 5.45 7.47 9.42 6.88 3.4 0.0 0.0 11.73 13.99 15.22 15.86 15.89 16.28 17.33 17.78 18.86 19.31 19.88 20.34 20.45 20.78 20.97 21.36 21.92 22.07 21.97 22.07 22.12 22.26 21.68 21.24 21.68 22.21 22.22 21.87 21.8 22.38 22.57 22.42 22.53 24.54 24.67 25.85 25.45 20.98 19.63 17.27 12.91 12.47 16.45 18.13 18.64 19.53 20.54 21.69 21.61 21.34 20.44 20.2 19.59 20.27 21.11 25.11 26.2 27.15 27.07 25.93 25.48 25.24 24.99 24.89 25.02 25.91 27.81 28.34 27.8 26.93 25.73 24.41 25.79 26.75 27.22 27.12 26.61 25.64 24.97 23.64 21.13 17.41 14.06 10.61 8.13 6.63 5.25 4.83 3.99 4.15 4.02 4.36 4.33 4.27 3.5 5.21 6.74 8.31 10.5 11.46 11.98 12.25 12.28 12.28 12.41 12.29 12.39 12.69 13.02 13.18 13.36 13.46 13.45 13.4 13.23 13.01 12.74 12.33 11.95 11.58 11.22 10.94 11.34 11.11 11.17 10.91 12.2 13.67 15.63 17.15 18.73 22.18 29.0 46.71 78.0 78.0 61.75 44.01 33.87 43.8 37.1 38.24 35.62 35.1 36.52 32.18 30.65 42.66 62.43 55.9 54.11 53.73 54.61 58.28 64.02 70.85 78.0 78.0 77.23 76.4 73.07 67.07 56.02 58.29 65.79 73.03 74.83 73.79 72.3 70.99 70.8 71.37 69.11 63.97 59.12 55.15 53.54 54.26 55.51 56.93 57.42 56.93 56.29 55.68 55.84 56.85 58.65 61.07 62.72 63.56 64.55 64.4 64.4 64.4 64.4 64.4
68.67 0.0 0.0 0.0 0.0 0.0 0.0 0.0 0.0 0.0 0.0 0.0 0.0 0.0 0.0 0.0 0.0 0.0 0.0 0.0 0.0 0.0 0.0 0.0 0.0 0.0 0.0 0.0 0.0 0.0 0.0 0.0 0.0 0.0 0.0 0.0 0.0 0.0 0.0 0.0 0.0 0.0 0.0 0.0 0.0 0.0 0.0 0.0 0.0 0.0 0.0 0.0 0.0 1.71 2.01 2.72 4.08 4.61 4.62 5.0 6.05 7.63 9.5 11.91 14.75 16.68 17.78 18.34 18.9 19.65 20.11 19.71 20.71 22.91 23.53 23.73 23.72 23.53 23.29 23.13 23.13 23.2 23.21 23.22 23.26 23.42 23.68 23.85 23.87 23.87 23.97 24.05 23.96 23.81 23.85 23.77 23.63 23.61 23.71 24.07 24.48 24.87 25.09 25.25 25.37 25.37 25.31 25.43 25.81 26.27 26.32 25.56 23.47 21.21 18.48 14.93 12.03 9.32 7.31 6.55 5.95 4.1 2.83 1.19 0.99 1.08 1.04 0.0 0.0 0.0 0.0 0.0 0.0 0.0 0.0 0.0 0.0 0.0 0.0 0.0 0.0 0.0 0.0 0.0 0.0 0.0 0.0 0.0 0.0 0.0 0.0 1.55 3.02 3.57 3.03 2.9 2.33 2.12 1.96 2.12 0.0 5.23 5.15 5.09 3.75 3.69 3.49 3.0 0.0 0.0 5.53 8.9 12.37 11.61 11.53 11.86 12.56 12.9 13.36 13.38 12.4 7.26 7.54 7.74 11.93 12.49 12.28 12.21 12.17 12.08 11.85 10.46 7.61 5.14 2.59 0.0 0.0 0.0 0.0 0.0 0.0 0.0 0.0 0.0 0.0 0.0 0.0 0.0 0.0 0.0 0.0 0.0 0.0 0.0 0.0 0.0 0.0 0.0 0.0 0.0 0.0 0.0 0.0 0.0 0.0 0.0 0.0 0.0 0.0 0.0 0.0 0.0 0.0 0.0 0.0 0.0 0.0 0.0 0.0 0.0 0.0 0.0 0.0 0.0 0.0 0.0 0.0 0.0 0.0 0.0 0.0 0.0 0.0 0.0 0.0 0.0 0.0 0.0 0.0 0.0 0.0 0.0 0.0 0.0 0.0 0.0 0.0 0.0 0.0 0.0 0.0 0.0 0.0 0.0 3.62 4.99 5.04 4.82 4.07 4.78 7.66 7.29 3.88 0.0 0.0 0.0 12.58 14.08 14.86 14.93 15.08 15.77 16.74 17.53 18.48 18.7 18.9 19.42 19.74 19.96 20.64 20.63 20.88 21.24 21.84 21.83 21.76 21.73 21.56 21.2 21.25 21.86 21.97 21.79 21.88 22.38 22.65 22.65 22.65 24.46 24.76 25.35 25.79 24.74 20.17 18.26 14.62 14.9 16.75 18.09 18.54 18.59 19.11 20.62 21.39 24.83 20.6 20.43 19.71 20.41 21.47 24.81 25.99 26.69 26.92 26.57 26.28 26.86 27.16 26.19 25.83 26.06 27.43 28.18 28.38 28.29 28.13 27.48 25.57 25.48 27.31 27.34 27.24 26.49 25.84 25.01 23.3 18.97 15.38 11.57 8.65 6.42 5.41 4.6 2.98 2.7 4.06 4.02 2.81 3.94 3.91 5.97 8.75 10.31 11.75 12.65 13.24 13.45 13.46 13.06 13.28 13.1 12.91 12.98 13.06 13.28 13.62 13.9 13.96 13.97 13.85 13.66 13.33 12.91 12.45 12.02 11.65 11.38 11.03 11.52 12.18 13.15 14.81 16.79 19.12 20.36 20.41 25.31 48.97 78.0 78.0 47.83 29.13 27.77 28.6 36.53 36.72 34.03 29.5 29.41 34.48 36.42 35.6 54.18 61.02 54.57 53.09 47.78 49.99 56.0 62.34 67.99 73.27 73.98 76.34 75.62 72.49 70.14 65.95 68.14 70.83 74.29 75.08 73.51 71.29 68.81 67.59 67.44 65.27 61.0 56.83 53.3 52.25 53.62 55.19 56.58 57.3 57.37 57.55 57.97 58.82 60.13 62.07 64.47 65.84 66.15 66.77 68.67 68.67 68.67 68.67 68.67
68.67 0.0 0.0 0.0 0.0 0.0 0.0 0.0 0.0 0.0 0.0 0.0 0.0 0.0 0.0 0.0 0.0 0.0 0.0 0.0 0.0 0.0 0.0 0.0 0.0 0.0 0.0 0.0 0.0 0.0 0.0 0.0 0.0 0.0 0.0 0.0 0.0 0.0 0.0 0.0 0.0 0.0 0.0 0.0 0.0 0.0 0.0 0.0 0.0 0.0 0.0 0.0 0.0 1.5 0.0 2.44 2.23 2.09 2.34 0.0 5.15 6.54 8.14 10.1 12.54 14.38 15.7 16.48 17.2 18.52 19.67 19.94 21.01 22.7 23.5 23.86 23.94 23.82 23.61 23.42 23.35 23.36 23.36 23.37 23.44 23.63 23.91 24.16 24.14 24.13 24.21 24.23 24.14 24.08 24.04 23.94 23.78 23.77 23.9 24.25 24.64 24.95 25.14 25.22 25.3 25.22 25.16 25.31 25.61 26.04 25.98 24.95 22.5 20.07 16.73 13.11 10.51 8.05 6.86 6.33 5.26 3.63 1.75 1.05 1.07 1.46 1.65 0.0 0.0 0.0 0.0 0.0 0.0 0.0 0.0 0.0 0.0 0.0 0.0 0.0 0.0 0.0 0.0 0.0 0.0 0.0 0.0 0.0 0.0 0.0 0.0 2.07 3.06 2.67 2.37 2.79 1.89 1.91 2.8 3.59 5.08 5.6 5.53 4.39 3.45 2.19 2.02 0.0 0.0 0.0 5.38 10.7 12.72 12.28 11.31 11.3 12.46 11.52 13.18 13.33 12.38 7.66 8.61 10.45 11.89 12.12 12.07 11.97 11.96 11.91 11.42 10.54 8.08 4.77 2.97 0.0 0.0 0.0 0.0 0.0 0.0 0.0 0.0 0.0 0.0 0.0 0.0 0.0 0.0 0.0 0.0 0.0 0.0 0.0 0.0 0.0 0.0 0.0 0.0 0.0 0.0 0.0 0.0 0.0 0.0 0.0 0.0 0.0 0.0 0.0 0.0 0.0 0.0 0.0 0.0 0.0 0.0 0.0 0.0 0.0 0.0 0.0 0.0 0.0 0.0 0.0 0.0 0.0 0.0 0.0 0.0 0.0 0.0 0.0 0.0 0.0 0.0 0.0 0.0 0.0 0.0 0.0 0.0 0.0 0.0 0.0 0.0 0.0 0.0 0.0 0.0 0.0 0.0 0.0 0.0 0.0 2.49 2.2 2.8 2.4 4.65 3.65 4.22 0.0 0.0 8.44 12.36 14.22 15.1 14.74 14.93 15.45 16.48 17.29 18.27 18.44 18.86 19.12 19.43 19.54 20.09 20.58 20.76 20.89 21.22 21.6 21.74 21.61 21.6 21.37 21.33 21.8 22.02 21.84 22.12 22.54 22.79 22.96 22.98 24.82 24.93 24.94 25.5 25.23 20.58 19.25 16.92 16.64 17.16 17.93 18.46 18.36 18.79 20.0 20.66 24.89 20.85 20.38 20.14 20.32 21.53 24.85 25.56 26.15 26.66 26.13 26.12 26.11 26.64 26.56 26.24 27.08 26.76 27.31 27.83 28.72 28.98 28.74 27.79 27.27 26.46 26.98 27.65 27.1 26.56 25.82 24.35 20.46 16.87 12.75 9.02 4.86 4.98 4.39 3.12 3.96 0.0 0.0 3.76 4.51 5.15 7.21 10.27 11.91 13.13 13.99 14.62 14.81 14.81 14.39 14.73 14.51 14.26 13.96 13.55 13.28 13.58 14.15 14.41 14.51 14.54 14.41 14.11 13.67 13.09 12.59 12.34 12.09 12.09 12.5 13.71 15.47 16.98 19.43 23.45 24.88 23.34 36.02 75.28 78.0 63.64 35.33 24.77 26.36 28.29 30.16 32.14 29.52 25.73 25.83 32.48 40.73 52.94 63.37 59.0 54.55 51.87 45.82 48.44 55.35 62.62 68.02 72.17 72.8 75.96 75.89 72.02 71.53 70.23 70.14 71.12 73.23 73.5 71.7 68.91 65.53 63.49 62.72 60.79 57.54 54.36 51.65 51.15 52.78 54.34 55.56 56.41 57.0 58.03 59.54 61.07 62.6 64.4 66.34 67.34 67.37 67.59 68.67 68.67 68.67 68.67 68.67
68.67 0.0 0.0 0.0 0.0 0.0 0.0 0.0 0.0 0.0 0.0 0.0 0.0 0.0 0.0 0.0 0.0 0.0 0.0 0.0 0.0 0.0 0.0 0.0 0.0 0.0 0.0 0.0 0.0 0.0 0.0 0.0 0.0 0.0 0.0 0.0 0.0 0.0 0.0 0.0 0.0 0.0 0.0 0.0 0.0 0.0 0.0 0.0 0.0 0.0 0.0 0.0 0.0 0.0 1.62 2.48 2.29 0.0 0.0 0.0 0.0 6.22 7.16 8.91 10.92 12.47 13.69 14.13 14.73 16.45 18.45 19.88 21.26 22.56 23.57 24.11 24.24 24.18 23.99 23.8 23.69 23.59 23.57 23.58 23.68 23.83 24.08 24.45 24.47 24.33 24.36 24.35 24.24 24.25 24.22 24.12 24.01 24.05 24.2 24.43 24.74 24.95 25.07 25.1 25.09 24.84 24.84 25.15 25.54 25.79 25.47 23.78 21.02 18.14 14.77 11.74 8.67 6.99 6.26 6.1 5.3 3.72 1.62 1.2 1.1 1.28 1.6 1.25 0.0 0.0 0.0 0.0 0.0 0.0 0.0 0.0 0.0 0.0 0.0 0.0 0.0 0.0 0.0 0.0 0.0 0.0 0.0 0.0 0.0 0.0 0.0 2.88 3.26 2.11 2.24 2.51 2.07 2.9 3.73 4.15 5.06 5.06 4.39 2.58 2.2 0.0 0.0 0.0 0.0 0.0 5.11 11.48 12.87 12.69 10.55 10.73 11.82 9.65 12.65 12.89 12.88 11.17 10.43 11.97 12.23 12.06 12.05 11.98 12.0 11.89 10.85 9.49 7.83 4.66 0.0 0.0 0.0 0.0 0.0 0.0 0.0 0.0 0.0 0.0 0.0 0.0 0.0 0.0 0.0 0.0 0.0 0.0 0.0 0.0 0.0 0.0 0.0 0.0 0.0 0.0 0.0 0.0 0.0 0.0 0.0 0.0 0.0 0.0 0.0 0.0 0.0 0.0 0.0 0.0 0.0 0.0 0.0 0.0 0.0 0.0 0.0 0.0 0.0 0.0 0.0 0.0 0.0 0.0 0.0 0.0 0.0 0.0 0.0 0.0 0.0 0.0 0.0 0.0 0.0 0.0 0.0 0.0 0.0 0.0 0.0 0.0 0.0 0.0 0.0 0.0 0.0 0.0 0.0 0.0 0.0 0.0 0.0 0.0 0.0 0.0 0.0 0.0 0.0 0.0 0.0 8.81 12.2 14.02 14.6 14.22 14.8 15.52 16.6 17.23 18.12 18.03 18.38 18.73 19.41 19.38 19.85 20.19 20.57 21.01 21.11 21.37 21.54 21.57 21.59 21.62 21.62 21.97 22.19 22.06 22.21 22.68 22.91 23.14 23.21 24.93 25.09 24.89 25.32 25.46 20.51 19.39 18.73 18.45 18.41 18.86 19.48 19.55 19.64 20.13 20.18 24.87 24.42 20.29 20.14 20.07 21.1 24.75 25.24 25.71 26.27 26.37 26.06 25.87 25.98 26.51 26.9 28.11 28.3 27.8 27.39 28.24 28.83 29.48 28.95 28.66 28.27 28.44 27.79 27.36 27.02 26.46 25.41 22.27 18.65 14.29 10.39 6.87 5.37 4.65 0.0 0.0 0.0 0.0 3.49 5.19 6.37 10.08 12.15 13.19 14.38 15.26 15.86 16.11 16.1 15.59 15.8 15.51 15.21 15.05 14.62 13.8 13.81 14.36 14.6 14.72 14.98 14.98 14.82 14.55 13.84 13.24 12.82 12.28 12.38 13.45 15.94 17.97 20.05 25.88 36.78 41.8 39.71 70.93 78.0 55.6 36.89 28.61 26.02 26.44 28.96 29.72 31.52 30.79 28.6 30.0 35.97 42.67 58.34 66.1 59.11 56.37 53.28 47.77 51.6 57.66 65.59 67.79 70.05 72.31 76.61 78.0 75.22 72.49 70.48 69.3 69.31 70.26 69.74 67.55 64.45 60.76 58.34 57.21 55.66 53.59 51.84 50.6 50.58 51.72 52.72 53.46 54.26 55.26 57.09 59.68 61.83 63.4 64.54 65.29 65.76 66.03 66.68 68.67 68.67 68.67 68.67 68.67
68.67 0.0 0.0 0.0 0.0 0.0 0.0 0.0 0.0 0.0 0.0 0.0 0.0 0.0 0.0 0.0 0.0 0.0 0.0 0.0 0.0 0.0 0.0 0.0 0.0 0.0 0.0 0.0 0.0 0.0 0.0 0.0 0.0 0.0 0.0 0.0 0.0 0.0 0.0 0.0 0.0 0.0 0.0 0.0 0.0 0.0 0.0 0.0 0.0 0.0 0.0 0.0 0.0 0.0 1.61 2.49 2.49 2.09 1.73 0.0 0.0 0.0 6.7 8.09 10.09 11.29 12.34 12.4 12.58 14.27 16.71 18.95 20.73 22.3 23.69 24.49 24.68 24.59 24.33 24.13 24.0 23.81 23.78 23.79 23.92 24.04 24.31 24.78 24.73 24.48 24.52 24.52 24.44 24.46 24.43 24.37 24.32 24.37 24.51 24.64 24.87 24.98 24.97 24.96 24.68 24.63 24.82 24.95 25.37 25.36 24.12 22.42 19.87 16.83 13.6 10.8 7.56 6.31 5.84 5.95 5.33 3.82 1.79 1.6 1.2 1.64 1.82 1.37 0.0 0.0 0.0 0.0 0.0 0.0 0.0 0.0 0.0 0.0 0.0 0.0 0.0 0.0 0.0 0.0 0.0 0.0 0.0 0.0 0.0 0.0 2.0 2.81 2.16 1.54 1.97 2.22 2.4 4.17 4.49 4.82 4.32 3.39 4.24 4.53 3.72 3.19 0.0 0.0 0.0 0.0 5.23 11.57 13.49 13.48 12.12 12.51 13.38 12.62 12.92 12.82 12.39 9.53 11.38 12.16 12.12 11.93 11.89 11.87 11.85 11.92 11.07 8.34 7.18 3.2 0.0 0.0 0.0 0.0 0.0 0.0 0.0 0.0 0.0 0.0 0.0 0.0 0.0 0.0 0.0 0.0 0.0 0.0 0.0 0.0 0.0 0.0 0.0 0.0 0.0 0.0 0.0 0.0 0.0 0.0 0.0 0.0 0.0 0.0 0.0 0.0 0.0 0.0 0.0 0.0 0.0 0.0 0.0 0.0 0.0 0.0 0.0 0.0 0.0 0.0 0.0 0.0 0.0 0.0 0.0 0.0 0.0 0.0 0.0 0.0 0.0 0.0 0.0 0.0 0.0 0.0 0.0 0.0 0.0 0.0 0.0 0.0 0.0 0.0 0.0 0.0 0.0 0.0 0.0 0.0 0.0 0.0 0.0 0.0 0.0 0.0 0.0 0.0 0.0 0.0 0.0 0.0 12.08 13.49 14.21 14.16 14.32 15.03 16.28 17.29 17.93 17.98 17.92 18.57 19.53 19.42 19.69 20.0 20.29 20.67 21.01 21.29 21.51 21.5 21.45 21.61 21.75 21.96 22.29 22.32 22.34 22.68 22.94 23.26 23.39 25.13 25.24 25.24 25.73 24.63 20.47 19.74 19.63 19.66 19.76 19.99 20.46 21.07 21.04 20.94 20.52 24.45 24.93 24.45 20.16 20.39 20.75 24.57 25.14 25.48 25.97 26.37 25.95 25.77 26.43 27.61 28.41 29.11 29.42 29.14 29.04 29.18 28.57 29.84 29.64 29.17 28.64 28.92 29.11 28.72 28.13 27.37 26.39 24.67 20.58 15.93 11.61 7.07 5.84 0.0 0.0 0.0 0.0 0.0 4.03 5.2 7.25 11.88 13.65 14.53 15.49 16.32 16.91 17.11 17.08 16.53 16.57 16.15 15.86 15.76 15.35 14.54 14.6 14.91 14.77 15.02 15.13 15.15 15.38 15.23 14.47 13.65 13.9 14.63 16.66 18.41 21.96 23.31 27.79 41.6 49.73 62.21 75.64 76.85 55.9 29.66 24.73 26.25 26.76 24.72 27.01 31.36 33.44 31.83 33.12 37.31 40.79 44.09 63.84 64.33 59.42 59.9 58.85 54.13 60.89 65.91 69.49 66.32 69.29 71.02 74.57 77.19 76.13 72.99 70.26 68.35 67.4 67.21 65.94 63.42 60.11 56.28 53.54 52.0 50.79 49.84 49.5 49.75 50.21 50.79 51.17 51.4 52.1 53.41 55.87 59.32 61.93 63.47 63.93 63.49 63.46 63.99 65.14 68.67 68.67 68.67 68.67 68.67
68.67 0.0 0.0 0.0 0.0 0.0 0.0 0.0 0.0 0.0 0.0 0.0 0.0 0.0 0.0 0.0 0.0 0.0 0.0 0.0 0.0 0.0 0.0 0.0 0.0 0.0 0.0 0.0 0.0 0.0 0.0 0.0 0.0 0.0 0.0 0.0 0.0 0.0 0.0 0.0 0.0 0.0 0.0 0.0 0.0 0.0 0.0 0.0 0.0 0.0 0.0 0.0 0.0 0.0 0.0 2.5 2.32 1.91 1.64 1.6 0.0 0.0 0.0 7.43 9.93 10.97 11.89 11.92 11.67 12.98 15.16 17.3 19.48 21.73 23.57 24.84 25.19 25.04 24.68 24.44 24.26 24.01 23.95 23.97 24.11 24.23 24.54 24.99 24.82 24.55 24.67 24.76 24.73 24.73 24.66 24.66 24.66 24.67 24.72 24.82 25.01 25.06 24.9 24.82 24.52 24.42 24.71 25.08 25.19 25.06 22.96 21.04 18.68 15.63 12.77 9.87 7.06 6.06 5.64 5.79 5.3 3.83 1.86 1.45 1.06 1.79 2.17 1.84 1.83 0.0 0.0 0.0 0.0 0.0 0.0 0.0 0.0 0.0 0.0 0.0 0.0 0.0 0.0 0.0 0.0 0.0 0.0 0.0 0.0 0.0 2.22 2.21 0.0 1.19 1.81 2.06 3.92 5.23 5.5 4.44 2.83 3.88 5.92 7.15 6.93 6.62 3.41 0.0 3.78 5.88 11.0 13.65 13.28 12.91 11.28 12.21 12.07 11.91 12.49 12.77 12.21 9.19 11.46 11.79 11.75 11.62 11.53 11.56 11.72 11.61 10.13 8.21 8.42 3.72 0.0 0.0 0.0 0.0 0.0 0.0 0.0 0.0 0.0 0.0 0.0 0.0 0.0 0.0 0.0 0.0 0.0 0.0 0.0 0.0 0.0 0.0 0.0 0.0 0.0 0.0 0.0 0.0 0.0 0.0 0.0 0.0 0.0 0.0 0.0 0.0 0.0 0.0 0.0 0.0 0.0 0.0 0.0 0.0 0.0 0.0 0.0 0.0 0.0 0.0 0.0 0.0 0.0 0.0 0.0 0.0 0.0 0.0 0.0 0.0 0.0 0.0 0.0 0.0 0.0 0.0 0.0 0.0 0.0 0.0 0.0 0.0 0.0 0.0 0.0 0.0 0.0 0.0 0.0 0.0 0.0 0.0 0.0 0.0 0.0 0.0 0.0 0.0 0.0 0.0 0.0 0.0 10.71 12.12 13.53 14.29 14.28 14.55 15.47 16.75 17.57 17.8 17.87 18.37 19.29 19.61 19.77 20.04 20.38 20.62 21.07 21.2 21.37 21.56 21.42 21.49 21.56 21.67 22.05 22.41 22.28 22.68 22.97 23.29 23.58 25.31 25.26 25.67 26.17 25.26 20.63 19.99 19.83 20.01 20.61 20.49 21.16 21.71 21.37 21.73 24.59 21.34 24.89 24.94 24.47 21.56 21.27 24.77 25.36 25.36 25.5 26.07 25.72 25.71 27.17 28.56 29.19 29.52 29.97 30.22 30.05 29.37 30.26 30.42 30.25 29.38 28.43 28.63 29.19 29.19 28.87 28.54 27.31 25.8 22.33 18.51 13.37 6.06 8.08 0.0 0.0 0.0 0.0 0.0 3.91 5.69 8.77 13.18 14.65 15.27 16.21 17.13 17.72 17.9 17.82 17.24 17.13 16.57 16.29 16.06 15.56 14.79 15.26 15.49 15.14 15.08 15.19 15.16 15.6 16.08 17.31 19.06 24.37 31.79 40.87 45.54 47.81 49.15 50.95 49.94 49.1 76.08 78.0 64.24 31.26 23.27 24.3 26.24 27.63 28.32 28.41 31.56 34.13 30.41 30.43 34.41 37.09 45.63 72.6 59.15 57.34 60.2 64.23 62.69 64.98 68.37 66.09 64.72 68.25 72.2 75.46 77.09 76.13 72.8 69.85 67.63 66.18 65.35 63.92 61.73 58.89 55.54 52.56 50.12 48.69 48.32 48.82 50.04 50.82 51.03 50.93 50.64 50.93 51.92 53.76 56.3 58.17 59.19 59.27 58.57 58.37 58.84 60.64 68.67 68.67 68.67 68.67 68.67
68.67 0.0 0.0 0.0 0.0 0.0 0.0 0.0 0.0 0.0 0.0 0.0 0.0 0.0 0.0 0.0 0.0 0.0 0.0 0.0 0.0 0.0 0.0 0.0 0.0 0.0 0.0 0.0 0.0 0.0 0.0 0.0 0.0 0.0 0.0 0.0 0.0 0.0 0.0 0.0 0.0 0.0 0.0 0.0 0.0 0.0 0.0 0.0 0.0 0.0 0.0 0.0 0.0 0.0 0.0 0.0 1.66 1.47 1.44 1.51 1.29 0.0 0.0 6.74 10.1 11.44 12.21 12.55 12.28 13.12 14.45 15.53 17.93 20.66 22.8 24.75 25.6 25.53 25.14 24.83 24.53 24.26 24.16 24.14 24.23 24.36 24.61 24.84 24.69 24.57 24.73 24.94 24.91 24.88 24.8 24.85 24.86 24.85 24.83 24.9 25.07 25.05 24.76 24.41 24.31 24.33 24.54 24.97 24.94 24.37 21.89 20.08 17.66 14.97 12.04 8.75 6.74 5.91 5.5 5.68 5.08 3.39 1.71 1.16 1.04 1.63 2.01 1.74 1.86 1.27 0.0 0.0 0.0 0.0 0.0 0.0 0.0 0.0 0.0 0.0 0.0 0.0 0.0 0.0 0.0 0.0 0.0 0.0 0.0 0.0 2.08 0.0 0.0 0.0 1.65 2.62 4.65 4.85 5.45 3.81 3.46 5.44 7.13 7.98 8.18 8.02 5.91 3.73 4.93 9.68 12.35 10.93 12.29 11.79 10.48 10.25 10.59 12.63 12.78 12.64 11.76 9.96 11.31 11.56 11.8 11.87 11.87 11.92 11.69 11.16 10.07 7.75 6.39 2.81 0.0 0.0 0.0 0.0 0.0 0.0 0.0 0.0 0.0 0.0 0.0 0.0 0.0 0.0 0.0 0.0 0.0 0.0 0.0 0.0 0.0 0.0 0.0 0.0 0.0 0.0 0.0 0.0 0.0 0.0 0.0 0.0 0.0 0.0 0.0 0.0 0.0 0.0 0.0 0.0 0.0 0.0 0.0 0.0 0.0 0.0 0.0 0.0 0.0 0.0 0.0 0.0 0.0 0.0 0.0 0.0 0.0 0.0 0.0 0.0 0.0 0.0 0.0 0.0 0.0 0.0 0.0 0.0 0.0 0.0 0.0 0.0 0.0 0.0 0.0 0.0 0.0 0.0 0.0 0.0 0.0 0.0 0.0 0.0 0.0 0.0 0.0 0.0 0.0 0.0 0.0 0.0 9.18 11.09 13.22 14.52 14.42 14.66 15.07 16.19 16.9 17.11 17.6 18.16 18.85 19.53 19.69 20.24 20.63 20.78 21.03 21.1 21.24 21.45 21.46 21.5 21.48 21.48 21.67 22.26 22.52 22.69 23.04 23.33 23.6 25.44 25.52 25.69 26.59 26.18 24.43 20.46 20.7 20.61 21.29 21.23 21.78 21.6 21.38 24.66 25.19 24.79 23.17 23.98 24.29 23.77 23.26 23.38 23.91 24.33 24.52 25.34 25.66 25.62 26.32 27.97 29.14 29.59 30.14 30.53 31.05 29.86 29.13 29.43 30.82 30.24 29.19 28.38 28.6 29.39 29.39 29.16 28.42 27.43 25.45 23.47 17.37 13.01 10.95 4.21 0.0 0.0 0.0 0.0 2.73 5.49 8.21 13.95 15.59 16.11 16.83 17.73 18.39 18.65 18.56 17.78 17.57 17.06 16.67 16.28 15.86 15.23 15.4 15.51 15.85 15.62 15.66 15.39 16.22 19.65 28.51 35.29 42.63 49.02 45.65 41.6 37.82 35.31 33.51 33.83 41.29 78.0 78.0 53.36 24.13 22.81 23.57 25.4 26.53 28.56 30.51 33.59 35.37 32.37 30.63 32.19 36.41 59.17 70.67 49.99 52.51 58.29 60.73 62.13 63.84 64.27 65.51 67.63 70.73 74.28 76.53 77.19 75.73 72.37 69.35 66.95 65.13 63.81 62.33 60.59 58.36 55.6 52.43 49.09 47.35 47.37 48.53 50.52 51.55 51.49 50.96 50.17 50.01 50.56 51.52 52.76 53.62 54.02 53.79 53.05 52.76 53.08 55.51 68.67 68.67 68.67 68.67 68.67
40.98 0.0 0.0 0.0 0.0 0.0 0.0 0.0 0.0 0.0 0.0 0.0 0.0 0.0 0.0 0.0 0.0 0.0 0.0 0.0 0.0 0.0 0.0 0.0 0.0 0.0 0.0 0.0 0.0 0.0 0.0 0.0 0.0 0.0 0.0 0.0 0.0 0.0 0.0 0.0 0.0 0.0 0.0 0.0 0.0 0.0 0.0 0.0 0.0 0.0 0.0 0.0 0.0 0.0 0.0 0.0 0.0 0.0 0.0 1.44 1.46 1.7 0.0 6.4 9.8 11.48 12.22 13.13 13.54 14.24 14.51 14.23 15.94 18.71 20.96 23.59 25.7 25.97 25.56 25.15 24.79 24.57 24.46 24.38 24.41 24.57 24.7 24.72 24.59 24.67 24.81 24.99 24.98 24.91 24.83 24.82 24.82 24.83 24.88 24.93 25.06 24.97 24.63 24.25 24.23 24.35 24.45 24.73 24.33 23.25 20.82 19.21 16.78 14.24 11.38 8.5 6.83 5.85 5.43 5.65 4.75 2.83 1.55 1.29 1.63 1.56 1.32 1.14 1.54 1.22 1.12 0.0 0.0 0.0 0.0 0.0 0.0 0.0 0.0 0.0 0.0 0.0 0.0 0.0 0.0 0.0 0.0 0.0 0.0 0.0 1.74 0.0 0.0 0.0 2.02 3.9 4.9 5.21 5.07 3.34 4.59 6.56 7.51 8.05 8.43 8.03 6.01 3.07 5.85 10.78 12.3 11.68 12.01 11.06 10.23 9.14 9.84 12.5 12.71 12.05 9.45 8.81 11.18 11.81 11.77 11.87 11.74 11.74 11.44 11.2 9.55 7.0 4.81 2.17 0.0 0.0 0.0 0.0 0.0 0.0 0.0 0.0 0.0 0.0 0.0 0.0 0.0 0.0 0.0 0.0 0.0 0.0 0.0 0.0 0.0 0.0 0.0 0.0 0.0 0.0 0.0 0.0 0.0 0.0 0.0 0.0 0.0 0.0 0.0 0.0 0.0 0.0 0.0 0.0 0.0 0.0 0.0 0.0 0.0 0.0 0.0 0.0 0.0 0.0 0.0 0.0 0.0 0.0 0.0 0.0 0.0 0.0 0.0 0.0 0.0 0.0 0.0 0.0 0.0 0.0 0.0 0.0 0.0 0.0 0.0 0.0 0.0 0.0 0.0 0.0 0.0 0.0 0.0 0.0 0.0 0.0 0.0 0.0 0.0 0.0 0.0 0.0 0.0 0.0 0.0 0.0 0.0 9.21 12.05 13.63 14.81 14.65 15.2 16.08 16.59 16.89 17.28 18.08 18.78 19.16 19.89 20.36 20.84 21.01 21.08 21.16 21.29 21.42 21.52 21.54 21.45 21.39 21.42 21.78 22.55 22.91 23.26 23.52 23.72 25.54 25.64 25.92 26.46 27.14 25.6 21.28 21.07 20.46 21.0 21.37 24.61 24.64 24.48 25.11 25.48 25.45 24.56 25.08 25.39 25.91 25.72 25.11 24.96 24.64 23.93 24.59 25.33 25.6 25.73 26.82 28.41 29.14 30.12 30.59 31.2 31.33 30.46 29.2 29.7 31.04 31.13 29.98 29.34 29.13 29.28 29.52 29.09 28.19 26.89 25.32 20.46 17.08 14.91 12.41 12.71 0.0 0.0 0.0 5.42 5.14 7.94 14.83 16.55 17.11 17.63 18.41 19.12 19.31 18.9 17.87 17.71 17.39 17.05 16.57 16.29 15.76 15.52 15.31 15.3 15.46 16.01 16.73 18.9 22.28 27.47 34.58 47.98 43.9 26.48 23.48 22.15 22.18 22.97 28.86 47.88 78.0 68.2 45.31 23.75 23.22 23.16 23.85 24.9 26.86 30.46 33.51 35.89 34.3 34.37 38.9 52.24 71.89 43.66 33.23 41.03 53.94 57.97 58.62 61.9 64.93 67.86 70.35 72.87 75.34 76.51 76.22 74.37 71.17 68.38 66.18 64.27 62.62 61.03 59.44 57.48 55.09 52.07 48.66 46.93 47.04 48.31 50.42 51.45 51.27 50.56 49.53 49.18 49.53 49.89 50.15 50.2 50.01 49.46 48.63 48.22 48.36 48.42 40.98 40.98 40.98 40.98 40.98
40.98 0.0 0.0 0.0 0.0 0.0 0.0 0.0 0.0 0.0 0.0 0.0 0.0 0.0 0.0 0.0 0.0 0.0 0.0 0.0 0.0 0.0 0.0 0.0 0.0 0.0 0.0 0.0 0.0 0.0 0.0 0.0 0.0 0.0 0.0 0.0 0.0 0.0 0.0 0.0 0.0 0.0 0.0 0.0 0.0 0.0 0.0 0.0 0.0 0.0 0.0 0.0 0.0 0.0 0.0 0.0 0.0 0.0 0.0 0.0 1.48 1.89 2.17 0.0 8.94 10.72 11.63 12.87 14.17 14.83 14.22 13.17 13.82 15.81 18.57 22.6 25.9 26.31 25.87 25.37 25.02 24.82 24.71 24.62 24.63 24.8 24.89 24.85 24.74 24.8 24.95 25.06 25.07 25.04 24.95 24.9 24.88 24.87 24.91 24.96 25.01 24.85 24.5 24.08 24.03 24.2 24.36 24.35 23.17 22.01 20.28 18.44 15.76 13.41 10.68 8.28 6.99 6.13 5.6 5.95 4.66 2.69 1.74 2.03 2.22 1.66 1.51 1.5 1.93 1.74 0.0 0.0 0.0 0.0 0.0 0.0 0.0 0.0 0.0 0.0 0.0 0.0 0.0 0.0 0.0 0.0 0.0 0.0 0.0 0.0 0.0 0.0 0.0 2.59 3.29 4.16 4.39 4.77 4.96 4.48 5.9 5.35 6.38 7.27 8.28 8.21 6.49 6.08 9.23 12.04 12.04 11.77 10.02 10.1 9.77 8.65 9.35 12.67 12.26 10.7 5.21 6.08 9.65 11.66 11.76 11.8 11.64 11.63 11.58 10.98 8.39 5.96 3.71 0.0 0.0 0.0 0.0 0.0 0.0 0.0 0.0 0.0 0.0 0.0 0.0 0.0 0.0 0.0 0.0 0.0 0.0 0.0 0.0 0.0 0.0 0.0 0.0 0.0 0.0 0.0 0.0 0.0 0.0 0.0 0.0 0.0 0.0 0.0 0.0 0.0 0.0 0.0 0.0 0.0 0.0 0.0 0.0 0.0 0.0 0.0 0.0 0.0 0.0 0.0 0.0 0.0 0.0 0.0 0.0 0.0 0.0 0.0 0.0 0.0 0.0 0.0 0.0 0.0 0.0 0.0 0.0 0.0 0.0 0.0 0.0 0.0 0.0 0.0 0.0 0.0 0.0 0.0 0.0 0.0 0.0 0.0 0.0 0.0 0.0 0.0 0.0 0.0 0.0 0.0 0.0 4.75 6.6 8.14 10.02 12.22 14.87 15.04 15.46 16.03 16.46 16.71 17.11 17.93 18.77 19.26 19.81 20.31 20.83 21.09 21.15 21.3 21.58 21.73 21.76 21.86 21.89 21.65 21.84 22.18 22.64 22.84 23.34 23.54 25.33 25.49 25.75 25.92 26.33 27.26 27.54 25.84 21.64 20.76 20.97 24.47 24.67 24.72 24.73 25.39 25.86 26.18 25.78 25.88 26.19 26.74 26.9 27.05 27.11 26.73 25.75 24.76 25.55 26.38 27.12 27.93 28.52 29.01 29.92 30.78 31.25 31.46 31.17 30.58 30.23 29.8 31.22 31.48 30.59 29.77 29.37 29.55 29.55 28.97 28.1 27.25 25.32 20.91 18.42 16.32 15.72 14.76 0.0 0.0 0.0 5.5 7.85 15.72 17.77 18.41 18.76 19.43 19.84 19.62 18.97 17.87 17.9 17.66 17.31 16.94 16.65 16.08 15.6 15.18 15.27 15.78 16.66 18.2 19.35 19.84 21.96 31.14 50.48 41.78 26.14 23.78 22.54 22.19 24.44 36.0 66.75 78.0 64.27 40.87 23.17 21.9 21.36 24.02 25.03 26.67 31.48 34.51 37.59 37.72 39.02 40.13 59.13 67.32 35.07 31.38 41.1 48.33 52.71 56.58 61.01 65.35 69.01 71.91 74.04 75.33 75.38 74.17 72.05 69.22 66.95 65.31 63.61 61.77 59.99 58.23 56.23 53.94 51.41 48.79 47.37 47.26 48.12 49.71 50.51 50.36 49.7 48.7 48.4 48.8 48.88 48.54 47.98 47.23 46.34 45.35 44.77 44.7 44.95 40.98 40.98 40.98 40.98 40.98
40.98 0.0 0.0 0.0 0.0 0.0 0.0 0.0 0.0 0.0 0.0 0.0 0.0 0.0 0.0 0.0 0.0 0.0 0.0 0.0 0.0 0.0 0.0 0.0 0.0 0.0 0.0 0.0 0.0 0.0 0.0 0.0 0.0 0.0 0.0 0.0 0.0 0.0 0.0 0.0 0.0 0.0 0.0 0.0 0.0 0.0 0.0 0.0 0.0 0.0 0.0 0.0 0.0 0.0 0.0 0.0 0.0 0.0 0.0 0.0 1.46 1.93 0.0 0.0 0.0 10.51 10.57 11.97 13.67 14.3 13.42 12.27 12.6 14.11 17.31 21.92 25.6 26.29 25.97 25.47 25.11 24.95 24.85 24.76 24.77 24.89 24.99 25.0 24.93 24.98 25.1 25.14 25.11 25.14 25.11 25.06 24.96 24.91 24.94 24.94 24.95 24.68 24.1 23.95 23.93 24.04 24.23 23.97 22.46 20.89 19.81 17.81 15.2 12.31 10.15 8.13 6.9 6.19 5.94 5.91 4.67 2.43 1.84 2.9 2.93 2.09 1.97 2.56 2.48 2.16 0.0 0.0 0.0 0.0 0.0 0.0 0.0 0.0 0.0 0.0 0.0 0.0 0.0 0.0 0.0 0.0 0.0 0.0 0.0 0.0 0.0 0.0 0.0 1.7 2.32 3.12 3.95 4.47 3.61 3.22 3.27 4.31 5.88 8.07 8.8 9.17 9.45 9.56 12.07 12.56 11.81 11.97 10.54 9.4 9.02 9.74 11.44 11.36 10.63 9.7 3.94 6.98 8.63 11.29 11.73 11.72 11.68 11.68 11.11 9.71 7.58 5.7 2.53 0.0 0.0 0.0 0.0 0.0 0.0 0.0 0.0 0.0 0.0 0.0 0.0 0.0 0.0 0.0 0.0 0.0 0.0 0.0 0.0 0.0 0.0 0.0 0.0 0.0 0.0 0.0 0.0 0.0 0.0 0.0 0.0 0.0 0.0 0.0 0.0 0.0 0.0 0.0 0.0 0.0 0.0 0.0 0.0 0.0 0.0 0.0 0.0 0.0 0.0 0.0 0.0 0.0 0.0 0.0 0.0 0.0 0.0 0.0 0.0 0.0 0.0 0.0 0.0 0.0 0.0 0.0 0.0 0.0 0.0 0.0 3.44 0.0 0.0 0.0 0.0 0.0 0.0 0.0 0.0 0.0 0.0 0.0 0.0 0.0 0.0 0.0 0.0 0.0 0.0 0.0 5.02 5.64 6.7 7.94 9.23 11.68 13.49 14.08 14.82 15.34 15.93 16.63 17.28 17.76 18.64 19.3 19.92 20.33 20.86 21.04 21.24 21.41 21.75 22.09 22.23 22.23 22.06 21.83 21.87 21.91 22.1 22.18 22.56 22.71 24.83 25.14 25.19 25.88 26.13 26.94 27.64 27.78 27.36 24.75 24.65 25.34 25.42 25.12 25.37 25.53 25.84 26.16 26.21 26.57 26.86 27.23 27.56 27.86 28.0 28.11 28.11 27.96 28.03 27.83 28.17 28.76 28.9 29.22 29.72 30.72 31.26 31.32 31.05 30.63 30.71 30.12 30.96 31.23 31.55 30.9 30.09 29.88 29.92 29.46 29.1 28.03 26.58 23.73 21.66 19.92 21.33 16.4 14.9 0.0 0.0 5.35 7.23 16.61 18.98 19.44 19.62 20.13 20.29 19.62 18.89 17.91 17.89 17.58 17.27 17.16 16.44 15.87 15.21 15.24 15.64 15.95 16.66 18.07 18.59 19.6 22.47 37.68 51.8 40.03 29.22 25.3 22.19 21.14 27.08 49.12 72.73 78.0 63.45 42.71 24.39 23.54 26.22 26.92 24.66 26.07 32.4 36.14 38.75 42.23 47.21 51.76 62.14 51.89 33.96 39.33 43.07 47.14 51.33 55.35 59.84 64.75 68.95 72.24 74.07 74.43 73.63 71.8 69.59 67.2 65.52 64.5 63.08 61.16 59.16 57.11 54.95 52.7 50.61 48.77 47.66 47.34 47.75 48.78 49.31 49.21 48.63 47.73 47.54 48.04 47.96 47.2 46.14 44.85 43.49 42.14 41.26 40.94 41.37 40.98 40.98 40.98 40.98 40.98
40.98 0.0 0.0 0.0 0.0 0.0 0.0 0.0 0.0 0.0 0.0 0.0 0.0 0.0 0.0 0.0 0.0 0.0 0.0 0.0 0.0 0.0 0.0 0.0 0.0 0.0 0.0 0.0 0.0 0.0 0.0 0.0 0.0 0.0 0.0 0.0 0.0 0.0 0.0 0.0 0.0 0.0 0.0 0.0 0.0 0.0 0.0 0.0 0.0 0.0 0.0 0.0 0.0 0.0 0.0 0.0 0.0 0.0 0.0 0.0 0.0 0.0 0.0 0.0 0.0 0.0 9.66 10.34 12.02 12.74 12.21 11.59 12.09 13.65 17.27 21.59 25.13 26.14 25.89 25.46 25.13 25.0 24.9 24.85 24.85 24.94 25.04 25.12 25.09 25.17 25.22 25.19 25.12 25.18 25.22 25.17 25.04 24.91 24.86 24.85 24.79 24.48 23.88 23.76 23.77 23.66 23.89 23.45 22.47 21.03 19.68 17.28 14.23 11.15 9.72 8.35 7.28 6.48 6.35 5.95 4.83 2.4 1.81 2.45 2.77 2.3 2.02 2.23 1.79 2.11 0.0 0.0 0.0 0.0 0.0 0.0 0.0 0.0 0.0 0.0 0.0 0.0 0.0 0.0 0.0 0.0 0.0 0.0 0.0 0.0 0.0 0.0 0.0 0.0 1.67 2.0 2.62 2.49 1.79 0.0 2.29 5.05 7.48 8.65 9.31 10.43 12.62 13.36 10.59 11.17 10.73 11.9 11.32 9.55 9.83 11.54 11.53 9.78 8.75 8.45 0.0 7.88 8.8 10.95 11.7 11.78 11.77 11.36 9.0 8.67 7.54 6.15 2.5 0.0 0.0 0.0 0.0 0.0 0.0 0.0 0.0 0.0 0.0 0.0 0.0 0.0 0.0 0.0 0.0 0.0 0.0 0.0 0.0 0.0 0.0 0.0 0.0 0.0 0.0 0.0 0.0 0.0 0.0 0.0 0.0 0.0 0.0 0.0 0.0 0.0 0.0 0.0 0.0 0.0 0.0 0.0 0.0 0.0 0.0 0.0 0.0 0.0 0.0 0.0 0.0 0.0 0.0 0.0 0.0 0.0 0.0 0.0 0.0 0.0 0.0 0.0 0.0 0.0 0.0 0.0 0.0 0.0 0.0 0.0 6.37 3.66 0.0 0.0 0.0 0.0 0.0 0.0 0.0 0.0 0.0 0.0 0.0 0.0 0.0 0.0 0.0 0.0 0.0 0.0 6.03 6.78 6.57 7.39 8.14 10.2 13.22 13.83 14.36 15.06 15.7 16.38 17.49 17.7 18.52 19.1 19.83 20.64 20.92 20.98 21.1 21.47 21.94 22.44 22.7 22.54 22.13 21.84 21.39 21.52 21.49 21.3 21.73 22.22 24.46 24.71 24.85 24.91 25.05 26.59 27.44 27.93 28.26 28.19 27.77 26.76 26.71 26.79 26.7 26.93 26.54 26.08 26.21 26.69 27.16 27.66 28.04 28.3 28.51 28.64 28.68 28.57 28.61 28.58 28.78 29.11 29.16 29.32 29.8 30.58 31.24 31.48 31.63 31.38 31.36 30.71 30.5 30.97 31.22 31.54 31.11 30.63 30.65 30.29 29.64 28.45 27.08 25.1 23.47 21.47 20.28 17.93 15.19 4.85 0.0 5.42 5.4 17.25 19.86 19.68 19.69 20.14 20.3 19.7 19.16 18.29 18.22 17.79 17.2 16.9 16.3 16.06 15.88 15.87 15.9 16.04 16.65 18.21 19.51 21.99 28.98 48.89 51.25 40.27 34.84 31.14 27.09 25.31 40.21 63.0 72.01 71.74 67.96 48.73 28.42 29.16 31.23 28.61 26.93 27.43 32.4 38.4 42.44 46.21 51.39 54.84 56.5 49.52 45.83 46.31 46.75 48.81 51.06 53.42 56.65 60.71 64.51 67.81 69.72 70.2 69.75 68.49 66.94 65.27 64.3 63.97 63.02 61.32 59.07 56.36 53.76 51.36 49.36 47.83 46.85 46.45 46.59 47.17 47.44 47.33 46.9 46.28 46.3 46.95 47.1 46.6 45.4 43.52 41.24 38.73 36.99 36.21 36.94 40.98 40.98 40.98 40.98 40.98
40.98 0.0 0.0 0.0 0.0 0.0 0.0 0.0 0.0 0.0 0.0 0.0 0.0 0.0 0.0 0.0 0.0 0.0 0.0 0.0 0.0 0.0 0.0 0.0 0.0 0.0 0.0 0.0 0.0 0.0 0.0 0.0 0.0 0.0 0.0 0.0 0.0 0.0 0.0 0.0 0.0 0.0 0.0 0.0 0.0 0.0 0.0 0.0 0.0 0.0 0.0 0.0 0.0 0.0 0.0 0.0 0.0 0.0 0.0 0.0 0.0 0.0 0.0 0.0 0.0 0.0 0.0 8.64 9.7 10.65 10.73 11.06 12.07 14.22 18.1 21.75 24.89 25.97 25.72 25.36 25.12 25.0 24.94 24.92 24.93 25.0 25.09 25.18 25.2 25.25 25.25 25.17 25.09 25.14 25.19 25.14 25.02 24.84 24.65 24.63 24.46 24.16 23.73 23.55 23.63 23.66 23.56 22.66 22.02 20.69 19.09 16.6 12.96 10.72 9.2 8.58 7.73 6.63 6.57 6.1 4.91 3.24 1.93 1.84 1.88 1.82 1.81 1.84 1.4 1.3 0.0 0.0 0.0 0.0 0.0 0.0 0.0 0.0 0.0 0.0 0.0 0.0 0.0 0.0 0.0 0.0 0.0 0.0 0.0 0.0 0.0 0.0 0.0 0.0 1.16 0.0 0.0 2.03 0.0 0.92 2.09 5.13 8.11 8.87 9.2 8.14 5.4 5.42 6.81 9.05 10.58 11.66 12.29 10.6 9.87 11.53 9.53 8.31 8.25 4.72 0.0 7.05 9.36 10.49 11.14 11.6 11.39 10.63 8.35 7.39 5.09 3.41 0.0 0.0 0.0 0.0 0.0 0.0 0.0 0.0 0.0 0.0 0.0 0.0 0.0 0.0 0.0 0.0 0.0 0.0 0.0 0.0 0.0 0.0 0.0 0.0 0.0 0.0 0.0 0.0 0.0 0.0 0.0 0.0 0.0 0.0 0.0 0.0 0.0 0.0 0.0 0.0 0.0 0.0 0.0 0.0 0.0 0.0 0.0 0.0 0.0 0.0 0.0 0.0 0.0 0.0 0.0 0.0 0.0 0.0 0.0 0.0 0.0 0.0 0.0 0.0 0.0 0.0 0.0 0.0 0.0 0.0 0.0 0.0 7.5 5.34 0.0 0.0 0.0 0.0 0.0 0.0 0.0 0.0 0.0 0.0 0.0 0.0 0.0 0.0 0.0 0.0 0.0 0.0 6.28 6.78 6.19 6.92 7.94 10.03 13.01 13.91 14.16 14.92 15.6 16.43 17.47 18.05 18.85 19.43 20.08 20.82 21.08 21.14 20.96 21.28 22.01 22.77 23.04 22.82 22.36 22.08 21.63 21.37 21.02 20.77 21.11 21.68 24.56 24.66 24.58 24.56 24.54 24.52 24.86 26.4 27.69 28.51 28.46 28.36 28.38 29.54 30.29 28.73 27.95 27.57 27.74 27.62 27.68 28.05 28.41 28.59 28.7 28.74 28.88 28.83 28.78 28.89 29.13 29.59 29.69 29.65 29.63 30.44 30.87 31.41 31.68 31.48 31.38 31.44 31.36 31.38 31.18 31.12 31.59 31.59 31.18 30.77 29.98 29.05 27.66 26.4 25.06 23.39 21.8 20.14 18.06 14.02 10.75 0.0 7.29 18.5 20.49 19.62 19.34 19.89 20.16 20.55 19.91 19.0 18.89 18.37 17.48 17.28 17.04 16.82 16.93 16.58 16.37 16.5 17.37 20.17 23.61 29.17 46.75 56.96 44.37 36.0 38.41 40.41 43.99 47.19 62.81 78.0 61.9 78.0 78.0 60.1 37.63 36.55 38.41 39.39 40.13 39.92 40.12 41.53 42.71 44.39 47.4 48.04 49.78 49.44 49.78 50.15 50.34 50.37 50.65 51.34 53.22 56.26 59.51 62.7 64.7 65.46 65.53 65.05 64.29 63.39 63.13 63.44 62.95 61.47 58.98 55.63 52.59 50.03 48.07 46.7 45.81 45.37 45.29 45.51 45.57 45.42 45.14 44.8 45.04 45.81 46.16 45.91 44.55 42.08 38.88 35.2 32.62 31.36 32.41 40.98 40.98 40.98 40.98 40.98
40.98 0.0 0.0 0.0 0.0 0.0 0.0 0.0 0.0 0.0 0.0 0.0 0.0 0.0 0.0 0.0 0.0 0.0 0.0 0.0 0.0 0.0 0.0 0.0 0.0 0.0 0.0 0.0 0.0 0.0 0.0 0.0 0.0 0.0 0.0 0.0 0.0 0.0 0.0 0.0 0.0 0.0 0.0 0.0 0.0 0.0 0.0 0.0 0.0 0.0 0.0 0.0 0.0 0.0 0.0 0.0 0.0 0.0 0.0 0.0 0.0 0.0 0.0 0.0 0.0 0.0 0.0 0.0 7.62 8.68 9.32 10.5 12.76 15.95 19.53 22.45 24.89 25.71 25.48 25.22 25.1 25.01 24.99 24.99 24.99 25.01 25.1 25.19 25.2 25.21 25.2 25.12 25.03 25.02 25.04 24.99 24.87 24.66 24.39 24.28 24.1 23.75 23.58 23.37 23.39 23.52 23.28 22.02 21.58 20.38 18.65 15.71 12.11 10.59 8.94 8.58 7.44 6.98 6.48 6.12 5.11 3.46 2.05 2.13 2.26 2.14 2.17 2.41 1.81 1.17 0.0 0.0 0.0 0.0 0.0 0.0 0.0 0.0 0.0 0.0 0.0 0.0 0.0 0.0 0.0 0.0 0.0 0.0 0.0 0.0 0.0 0.0 0.0 0.0 0.0 0.0 0.0 0.0 0.0 1.01 2.26 6.32 8.22 6.05 6.8 7.2 3.46 3.5 5.92 7.79 8.57 9.46 10.3 11.51 11.25 10.84 8.25 9.19 8.41 2.68 0.0 6.06 8.82 9.07 10.11 11.47 10.99 9.79 6.93 5.92 4.83 0.0 1.16 1.56 0.0 0.0 0.0 0.0 0.0 0.0 0.0 0.0 0.0 0.0 0.0 0.0 0.0 0.0 0.0 0.0 0.0 0.0 0.0 0.0 0.0 0.0 0.0 0.0 0.0 0.0 0.0 0.0 0.0 0.0 0.0 0.0 0.0 0.0 0.0 0.0 0.0 0.0 0.0 0.0 0.0 0.0 0.0 0.0 0.0 0.0 0.0 0.0 0.0 0.0 0.0 0.0 0.0 0.0 0.0 0.0 0.0 0.0 0.0 0.0 0.0 0.0 0.0 0.94 0.88 0.0 0.0 0.0 0.0 0.0 5.49 5.92 3.13 2.19 0.0 0.0 0.0 0.0 0.0 0.0 0.0 0.0 0.0 0.0 0.0 0.0 0.0 0.0 0.0 0.0 4.65 5.91 6.21 7.53 9.16 10.57 12.07 13.2 13.99 14.65 15.48 16.45 17.39 18.05 18.93 19.79 20.35 20.84 21.03 21.05 20.88 21.07 21.92 23.03 23.18 23.16 22.89 22.4 22.14 21.49 20.32 18.91 18.16 20.28 24.8 24.62 24.8 24.4 21.48 21.04 20.94 21.39 25.39 26.09 26.55 26.9 27.04 26.2 26.73 27.44 27.5 27.56 27.92 27.71 27.69 28.03 28.32 28.55 28.54 28.67 28.99 29.07 29.13 29.26 29.45 29.75 29.95 30.13 29.98 30.18 30.88 31.4 31.55 31.64 31.54 31.56 31.59 31.81 31.73 31.19 31.52 32.24 31.88 31.32 30.47 30.08 29.0 27.72 26.0 23.76 22.38 21.39 20.47 18.43 10.01 8.31 9.13 19.58 22.11 22.51 22.1 22.59 22.53 22.54 21.41 20.4 20.44 19.47 18.8 18.64 18.35 18.09 18.19 17.78 17.41 17.77 19.39 30.47 39.26 48.54 54.83 54.21 29.34 29.5 39.3 54.0 57.49 64.94 64.95 66.64 47.0 70.09 78.0 54.18 41.77 44.11 44.26 44.36 43.37 42.32 41.43 38.73 38.51 37.92 39.93 42.77 44.87 45.52 46.8 48.74 49.42 48.82 48.48 48.67 49.83 51.94 54.39 56.98 58.8 59.84 60.68 61.39 61.75 61.79 62.13 62.67 62.27 60.75 58.12 54.54 51.41 48.89 46.81 45.15 44.1 43.66 43.69 44.09 44.2 44.0 43.77 43.6 43.88 44.53 44.54 43.72 41.75 38.63 34.95 30.96 28.09 26.56 27.98 40.98 40.98 40.98 40.98 40.98
15.9 0.0 0.0 0.0 0.0 0.0 0.0 0.0 0.0 0.0 0.0 0.0 0.0 0.0 0.0 0.0 0.0 0.0 0.0 0.0 0.0 0.0 0.0 0.0 0.0 0.0 0.0 0.0 0.0 0.0 0.0 0.0 0.0 0.0 0.0 0.0 0.0 0.0 0.0 0.0 0.0 0.0 0.0 0.0 0.0 0.0 0.0 0.0 0.0 0.0 0.0 0.0 0.0 0.0 0.0 0.0 0.0 0.0 0.0 0.0 0.0 0.0 0.0 0.0 0.0 0.0 0.0 0.0 0.0 7.24 8.49 10.45 14.77 18.53 21.27 23.4 24.86 25.3 25.23 25.11 25.08 25.01 25.0 25.0 25.0 25.01 25.1 25.18 25.2 25.2 25.21 25.18 25.09 25.01 25.06 24.91 24.7 24.42 24.16 24.05 23.96 23.58 23.44 23.36 23.25 23.3 23.01 21.73 21.01 19.73 17.97 15.04 11.49 10.01 8.42 7.83 7.12 7.08 6.56 5.95 5.01 2.89 1.75 2.15 2.32 2.07 2.23 3.06 2.86 1.88 0.0 0.0 0.0 0.0 0.0 0.0 0.0 0.0 0.0 0.0 0.0 0.0 0.0 0.0 0.0 0.0 0.0 0.0 0.0 0.0 0.0 0.0 0.0 0.0 0.0 0.0 0.0 0.0 1.47 1.83 3.09 6.72 7.8 4.6 4.48 7.21 4.47 5.06 7.08 6.88 6.93 8.71 11.29 11.34 11.23 10.09 7.94 7.91 5.99 0.0 5.86 6.7 7.73 8.04 9.41 10.46 9.74 7.33 5.46 4.16 0.0 0.0 0.0 1.99 2.33 0.0 0.0 0.0 0.0 0.0 0.0 0.0 0.0 0.0 0.0 0.0 0.0 0.0 0.0 0.0 0.0 0.0 0.0 0.0 0.0 0.0 0.0 0.0 0.0 0.0 0.0 0.0 0.0 0.0 0.0 0.0 0.0 0.0 0.0 0.0 0.0 0.0 0.0 0.0 0.0 0.0 0.0 0.0 0.0 0.0 0.0 0.0 0.0 0.0 0.0 0.0 0.0 0.0 0.0 0.0 0.0 0.0 0.0 0.0 0.0 0.0 0.0 2.32 2.19 0.0 0.0 0.0 0.0 0.0 3.83 7.59 4.7 3.97 2.16 0.0 0.0 0.0 0.0 0.0 0.0 0.0 0.0 0.0 0.0 0.0 0.0 0.0 0.0 0.0 2.58 5.03 6.42 8.09 9.9 10.98 11.76 12.98 14.02 14.59 15.38 16.31 17.19 18.05 18.87 19.69 20.56 21.04 20.84 20.89 20.75 20.72 21.56 23.13 23.46 23.54 23.65 23.33 22.58 20.66 15.78 11.62 10.47 17.86 24.81 24.86 24.7 21.36 20.2 20.09 19.78 20.25 21.13 24.53 25.34 25.65 25.79 25.55 25.81 26.21 26.22 27.04 27.14 27.23 27.13 27.22 27.47 27.61 27.81 28.09 28.32 28.56 29.11 29.06 29.23 29.55 29.86 30.3 30.52 30.64 31.07 31.43 31.13 31.7 31.77 31.8 31.88 32.22 32.23 32.15 32.17 32.19 32.1 31.9 31.8 31.52 30.41 28.75 26.56 24.45 22.79 21.7 21.03 20.39 16.83 11.06 11.37 21.05 23.5 24.65 24.56 25.04 25.38 25.16 24.36 22.68 22.21 21.12 20.9 20.42 20.04 19.81 19.13 18.56 18.27 21.09 28.73 48.27 51.19 51.15 51.52 60.29 27.74 27.45 42.68 65.57 61.36 59.95 54.99 55.43 44.84 60.07 78.0 66.65 44.58 42.41 41.05 39.57 39.19 36.63 36.44 34.1 33.69 33.88 35.2 37.26 38.48 38.96 40.98 44.41 45.97 45.54 45.35 45.66 46.48 47.77 49.31 51.03 52.53 53.83 55.54 57.64 59.25 60.31 61.16 61.74 61.22 59.53 56.8 53.22 50.2 47.84 45.56 43.38 42.06 41.66 41.96 42.8 43.11 42.84 42.61 42.55 42.78 43.16 42.52 40.72 37.88 34.12 30.22 26.4 23.55 21.85 21.16 15.9 15.9 15.9 15.9 15.9
15.9 0.0 0.0 0.0 0.0 0.0 0.0 0.0 0.0 0.0 0.0 0.0 0.0 0.0 0.0 0.0 0.0 0.0 0.0 0.0 0.0 0.0 0.0 0.0 0.0 0.0 0.0 0.0 0.0 0.0 0.0 0.0 0.0 0.0 0.0 0.0 0.0 0.0 0.0 0.0 0.0 0.0 0.0 0.0 0.0 0.0 0.0 0.0 0.0 0.0 0.0 0.0 0.0 0.0 0.0 0.0 0.0 0.0 0.0 0.0 0.0 0.0 0.0 0.0 0.0 0.0 0.0 0.0 0.0 0.0 8.77 12.28 17.16 20.24 22.17 23.61 24.5 24.86 24.97 24.96 25.01 25.0 25.0 25.0 25.0 25.01 25.09 25.14 25.19 25.21 25.26 25.25 25.11 24.96 25.05 24.81 24.48 24.2 24.02 23.92 23.76 23.38 23.23 23.28 23.21 23.1 22.71 21.55 20.61 19.11 17.42 14.61 11.56 9.73 8.16 7.58 7.15 7.0 6.64 5.61 4.7 2.93 1.89 3.2 3.04 2.25 1.97 2.43 3.64 3.09 2.49 0.0 0.0 0.0 0.0 0.0 0.0 0.0 0.0 0.0 0.0 0.0 0.0 0.0 0.0 0.0 0.0 0.0 0.0 0.0 0.0 0.0 0.0 0.0 0.0 0.0 0.0 2.53 3.44 4.36 5.68 7.24 4.74 2.24 2.37 5.85 5.31 6.63 6.21 6.51 7.21 9.93 11.38 11.58 11.16 9.9 8.87 6.82 3.74 0.0 3.86 4.14 4.32 6.68 9.43 8.3 7.43 5.26 0.0 0.0 0.89 1.04 2.17 1.77 2.06 2.0 0.0 0.0 0.0 0.0 0.0 0.0 0.0 0.0 0.0 0.0 0.0 0.0 0.0 0.0 0.0 0.0 0.0 0.0 0.0 0.0 0.0 0.0 0.0 0.0 0.0 0.0 0.0 0.0 0.0 0.0 0.0 0.0 0.0 0.0 0.0 0.0 0.0 0.0 0.0 0.0 0.0 0.0 0.0 0.0 0.0 0.0 0.0 0.0 0.0 0.0 0.0 0.0 0.0 0.0 0.0 0.0 0.0 0.0 0.0 0.0 0.0 2.95 3.03 0.0 0.0 0.0 0.0 0.0 0.0 5.72 5.56 5.53 2.48 0.0 0.0 0.0 0.0 0.0 0.0 0.0 4.35 4.69 4.94 3.17 2.39 0.0 0.0 0.0 0.0 6.09 6.7 7.7 9.01 10.3 11.06 12.02 13.42 14.37 15.22 16.08 16.94 17.9 18.61 19.43 20.57 21.14 21.03 20.77 20.76 20.56 21.41 23.38 23.87 24.14 24.13 22.99 21.23 17.43 9.89 11.56 12.03 18.81 25.15 25.59 24.85 21.24 19.94 18.51 17.76 18.04 19.03 20.17 24.78 24.73 25.21 25.54 25.66 25.99 25.86 26.07 26.57 26.67 26.79 27.04 27.12 27.35 27.6 27.81 27.93 28.2 28.38 28.59 28.94 29.51 30.01 30.32 30.63 30.99 31.28 31.69 31.84 31.92 32.18 32.46 32.59 32.53 32.77 33.11 33.66 33.52 32.86 32.42 32.28 32.47 32.48 31.09 28.54 26.21 24.07 22.32 21.7 21.52 19.22 11.35 13.13 22.3 24.7 26.83 28.22 28.55 29.4 29.62 29.38 26.51 25.29 24.21 24.0 23.2 22.65 22.27 21.3 21.52 28.86 41.35 61.36 62.0 49.44 46.18 47.1 29.47 22.74 39.41 67.07 59.82 49.89 45.43 43.25 49.75 45.46 60.04 78.0 78.0 49.7 40.73 36.97 35.44 36.3 34.98 33.65 31.79 30.94 30.93 31.31 31.95 32.13 32.08 34.23 38.37 40.71 41.03 41.52 42.42 43.37 44.34 45.26 46.17 47.22 48.55 50.84 54.01 56.62 58.49 59.73 60.31 59.65 57.75 54.96 51.5 48.7 46.61 44.3 41.79 40.33 40.03 40.52 41.58 41.97 41.65 41.47 41.52 41.58 41.47 40.06 37.29 33.67 29.41 25.59 22.37 19.76 17.89 17.44 15.9 15.9 15.9 15.9 15.9
15.9 0.0 0.0 0.0 0.0 0.0 0.0 0.0 0.0 0.0 0.0 0.0 0.0 0.0 0.0 0.0 0.0 0.0 0.0 0.0 0.0 0.0 0.0 0.0 0.0 0.0 0.0 0.0 0.0 0.0 0.0 0.0 0.0 0.0 0.0 0.0 0.0 0.0 0.0 0.0 0.0 0.0 0.0 0.0 0.0 0.0 0.0 0.0 0.0 0.0 0.0 0.0 0.0 0.0 0.0 0.0 0.0 0.0 0.0 0.0 0.0 0.0 0.0 0.0 0.0 0.0 0.0 0.0 0.0 0.0 9.44 14.41 18.82 21.02 22.44 23.48 24.15 24.58 24.82 24.85 24.94 24.99 25.0 25.0 25.0 25.0 25.05 25.1 25.19 25.24 25.24 25.23 25.13 24.95 24.99 24.67 24.25 24.0 23.84 23.73 23.39 23.26 23.04 23.12 23.12 22.97 22.49 21.41 20.2 18.89 16.81 13.79 10.84 9.41 7.92 7.61 7.84 6.81 6.45 5.31 4.28 3.01 2.29 4.16 3.17 2.73 2.14 1.73 2.07 2.56 0.0 0.0 0.0 0.0 0.0 0.0 0.0 0.0 0.0 0.0 0.0 0.0 0.0 0.0 0.0 0.0 0.0 0.0 0.0 0.0 0.0 0.0 0.0 0.0 0.0 0.0 2.72 4.01 5.14 6.11 6.66 4.52 2.42 1.39 1.46 3.89 5.1 6.32 6.61 6.9 8.11 10.3 9.66 11.33 11.02 9.66 6.6 6.58 4.64 0.0 6.39 2.87 3.78 7.16 6.09 5.31 4.91 3.54 2.75 1.04 0.84 0.84 0.0 0.0 0.0 2.07 0.0 0.0 0.0 0.0 0.0 0.0 0.0 0.0 0.0 0.0 0.0 0.0 0.0 0.0 0.0 0.0 0.0 0.0 0.0 0.0 0.0 0.0 0.0 0.0 0.0 0.0 0.0 0.0 0.0 0.0 0.0 0.0 0.0 0.0 0.0 0.0 0.0 0.0 0.0 0.0 0.0 0.0 0.0 0.0 0.0 0.0 0.0 0.0 0.0 0.0 0.0 0.0 0.0 0.0 0.0 0.0 0.0 0.0 0.0 0.0 0.0 0.0 3.67 0.0 0.0 0.0 0.0 0.0 0.0 0.0 8.07 5.78 0.0 0.0 0.0 0.0 0.0 0.0 0.0 7.37 5.98 5.93 5.36 2.81 1.77 0.0 0.0 0.0 0.0 5.74 6.51 7.36 7.92 8.77 9.22 10.52 12.02 13.75 14.7 15.76 16.8 17.8 18.46 19.11 20.26 21.09 21.05 21.12 21.03 20.53 21.35 23.64 25.11 24.85 24.36 22.3 18.14 13.43 0.0 8.94 17.32 24.9 24.01 25.6 25.03 20.92 18.17 15.61 15.36 16.25 17.26 18.52 19.82 21.23 24.44 25.07 25.43 25.41 25.7 25.2 26.45 26.45 26.3 26.41 26.85 27.67 27.48 27.85 28.08 28.22 28.22 28.26 28.68 29.32 29.94 30.29 30.56 30.98 31.31 31.73 32.16 32.45 32.83 32.99 33.11 33.41 33.95 34.58 34.92 34.66 34.2 34.01 33.4 32.66 33.39 33.07 30.83 28.11 25.66 23.66 23.43 23.17 20.26 12.54 14.84 23.23 25.35 27.58 29.92 30.58 32.16 33.68 35.39 33.73 32.16 28.0 26.5 25.05 24.61 25.04 28.05 38.22 72.75 65.51 57.17 41.48 32.92 38.99 49.19 29.17 33.83 73.79 69.7 48.6 50.59 39.2 38.51 45.37 49.03 62.78 78.0 78.0 57.89 38.89 35.16 36.97 35.78 34.25 32.61 30.81 29.52 28.76 28.08 27.37 26.28 25.06 26.2 29.63 32.48 34.49 36.56 38.75 40.7 42.31 43.18 43.39 43.83 44.72 47.04 50.68 53.74 56.0 57.43 57.96 57.15 55.0 52.22 49.02 46.63 45.03 43.0 40.58 39.27 39.19 39.64 40.44 40.69 40.37 40.31 40.51 40.19 39.19 36.85 33.21 29.0 24.52 21.31 19.4 17.39 15.31 14.82 15.9 15.9 15.9 15.9 15.9
15.9 0.0 0.0 0.0 0.0 0.0 0.0 0.0 0.0 0.0 0.0 0.0 0.0 0.0 0.0 0.0 0.0 0.0 0.0 0.0 0.0 0.0 0.0 0.0 0.0 0.0 0.0 0.0 0.0 0.0 0.0 0.0 0.0 0.0 0.0 0.0 0.0 0.0 0.0 0.0 0.0 0.0 0.0 0.0 0.0 0.0 0.0 0.0 0.0 0.0 0.0 0.0 0.0 0.0 0.0 0.0 0.0 0.0 0.0 0.0 0.0 0.0 0.0 0.0 0.0 0.0 0.0 0.0 0.0 0.0 10.24 15.71 19.55 21.25 22.46 23.3 23.88 24.4 24.72 24.77 24.86 24.95 24.99 25.0 25.0 25.0 25.01 25.06 25.16 25.24 25.21 25.19 25.1 24.95 24.87 24.47 24.05 23.85 23.64 23.53 23.23 23.29 23.08 23.0 22.98 22.83 22.32 20.98 19.37 17.89 15.45 12.42 10.22 8.83 7.77 8.07 7.93 6.95 6.16 4.92 3.88 3.08 2.68 4.31 4.37 4.07 2.39 1.96 1.71 0.0 0.0 0.0 0.0 0.0 0.0 0.0 0.0 0.0 0.0 0.0 0.0 0.0 0.0 0.0 0.0 0.0 0.0 0.0 0.0 0.0 0.0 0.0 0.0 0.0 0.0 0.0 3.94 4.59 5.71 5.97 5.68 4.09 0.0 0.0 1.3 3.61 4.13 3.79 4.78 5.96 8.13 10.61 8.87 11.06 10.9 9.82 4.51 4.34 0.0 7.84 5.03 2.45 2.46 3.95 3.23 2.62 0.0 0.0 1.3 0.0 0.0 0.8 0.0 0.0 0.0 1.66 0.0 0.0 0.0 0.0 0.0 0.0 0.0 0.0 0.0 0.0 0.0 0.0 0.0 0.0 0.0 0.0 0.0 0.0 0.0 0.0 0.0 0.0 0.0 0.0 0.0 0.0 0.0 0.0 0.0 0.0 0.0 0.0 0.0 0.0 0.0 0.0 0.0 0.0 0.0 0.0 0.0 0.0 0.0 0.0 0.0 0.0 0.0 0.0 0.0 0.0 0.0 0.0 0.0 0.0 0.0 0.0 0.0 0.0 0.0 0.0 0.0 3.79 3.62 0.0 0.0 0.0 0.0 0.0 0.0 0.0 6.99 6.42 0.0 0.0 0.0 0.0 0.0 0.0 6.47 7.72 7.09 6.67 4.98 0.0 1.68 2.32 0.0 0.0 0.0 4.34 5.86 7.12 7.08 7.27 7.57 9.86 11.46 13.07 14.63 15.77 16.62 17.59 18.59 19.06 19.8 20.68 21.3 22.15 21.53 20.98 21.34 23.42 26.36 25.52 24.49 21.83 13.21 7.76 6.53 13.24 20.7 25.34 25.39 25.47 24.82 19.74 13.11 11.55 13.29 15.04 15.96 16.86 18.41 19.98 20.87 24.67 24.93 25.08 25.12 25.2 26.96 26.01 25.75 26.11 27.12 27.41 26.53 26.91 26.9 26.77 27.13 27.23 27.07 29.37 29.98 30.2 30.45 30.87 31.29 31.76 32.24 32.58 32.94 33.26 33.56 34.07 34.87 35.4 35.88 35.89 35.76 35.85 35.3 33.56 33.09 34.37 33.32 30.01 27.07 25.82 25.84 24.87 21.55 12.48 16.05 24.05 26.18 29.06 32.31 34.37 35.4 36.74 38.66 39.4 40.73 39.95 37.41 33.35 30.96 34.04 53.44 60.31 62.91 50.3 32.85 27.65 28.92 35.57 49.48 49.41 66.37 78.0 43.18 39.37 48.84 38.17 36.61 41.8 55.28 59.12 58.45 78.0 60.48 47.42 42.1 38.39 35.31 33.55 31.8 29.91 28.19 26.63 24.93 23.01 20.77 18.51 18.64 21.27 24.55 28.19 31.81 35.3 38.27 40.6 41.51 41.1 40.98 41.49 43.78 47.7 51.06 53.52 55.02 55.48 54.48 52.1 49.32 46.4 44.4 43.26 41.54 39.27 38.19 38.39 38.8 39.21 39.24 38.93 39.04 39.47 38.78 36.77 33.48 29.02 24.36 19.87 17.33 16.64 15.21 12.96 12.42 15.9 15.9 15.9 15.9 15.9
15.9 0.0 0.0 0.0 0.0 0.0 0.0 0.0 0.0 0.0 0.0 0.0 0.0 0.0 0.0 0.0 0.0 0.0 0.0 0.0 0.0 0.0 0.0 0.0 0.0 0.0 0.0 0.0 0.0 0.0 0.0 0.0 0.0 0.0 0.0 0.0 0.0 0.0 0.0 0.0 0.0 0.0 0.0 0.0 0.0 0.0 0.0 0.0 0.0 0.0 0.0 0.0 0.0 0.0 0.0 0.0 0.0 0.0 0.0 0.0 0.0 0.0 0.0 0.0 0.0 0.0 0.0 0.0 0.0 0.0 10.72 15.98 19.64 21.22 22.39 23.15 23.67 24.23 24.59 24.7 24.78 24.88 24.96 25.0 25.0 25.0 25.0 25.02 25.11 25.19 25.2 25.15 25.02 24.92 24.72 24.27 23.91 23.75 23.46 23.26 23.11 23.47 23.18 22.97 22.86 22.67 22.16 20.81 18.89 16.93 13.83 11.5 9.84 8.22 7.26 7.52 7.76 7.09 5.96 4.57 3.64 3.2 3.42 4.72 4.1 3.55 2.18 2.4 2.26 0.0 0.0 0.0 0.0 0.0 0.0 0.0 0.0 0.0 0.0 0.0 0.0 0.0 0.0 0.0 0.0 0.0 0.0 0.0 0.0 0.0 0.0 0.0 0.0 0.0 0.0 0.0 4.94 5.64 5.58 3.74 3.66 2.5 0.0 0.0 1.07 1.98 2.52 2.81 3.93 5.6 7.77 10.05 9.33 10.07 10.38 9.95 4.35 3.71 0.0 2.88 2.41 1.66 2.59 0.0 0.0 0.0 3.09 1.17 0.97 0.0 0.0 0.0 0.0 0.0 0.0 1.51 0.0 0.0 0.0 0.0 0.0 0.0 0.0 0.0 0.0 0.0 0.0 0.0 0.0 0.0 0.0 0.0 0.0 0.0 0.0 0.0 0.0 0.0 0.0 0.0 0.0 0.0 0.0 0.0 0.0 0.0 0.0 0.0 0.0 0.0 0.0 0.0 0.0 0.0 0.0 0.0 0.0 0.0 0.0 0.0 0.0 0.0 0.0 0.0 0.0 0.0 0.0 0.0 0.0 0.0 0.0 0.0 0.0 0.0 0.0 0.0 0.0 3.2 4.11 0.0 0.0 0.0 0.0 0.0 0.0 0.0 5.14 8.38 6.91 0.0 0.0 0.0 7.75 8.7 8.36 8.32 8.01 7.25 4.05 0.0 0.0 0.0 0.0 0.0 0.0 0.0 5.31 6.64 6.45 5.65 7.18 9.45 10.62 11.99 14.26 15.76 16.6 17.49 18.41 18.97 19.43 20.6 21.07 21.51 22.49 22.85 21.65 23.84 30.04 26.67 24.7 23.13 15.87 13.82 16.76 18.22 25.06 25.11 25.38 25.66 24.98 15.32 10.93 10.38 11.7 12.97 13.28 13.03 16.39 19.42 20.81 21.34 24.45 24.42 24.72 25.43 27.02 25.63 25.21 25.42 26.4 26.94 26.53 26.29 26.21 26.44 27.02 27.78 28.29 29.37 29.79 30.08 30.41 30.84 31.25 31.63 32.09 32.53 32.94 33.32 33.91 34.47 35.22 35.79 36.34 36.61 37.18 37.88 38.16 36.27 34.05 35.58 36.81 32.38 28.93 30.09 31.43 29.87 24.7 13.34 16.67 25.72 28.97 31.24 36.04 37.6 37.68 38.86 40.7 41.73 43.71 44.09 44.72 45.79 45.68 54.18 74.68 51.08 40.4 34.28 27.3 28.05 37.03 39.25 53.0 66.69 76.58 59.38 39.57 42.13 48.43 45.46 43.75 46.08 56.85 56.59 48.13 61.02 56.0 52.45 47.54 41.7 37.05 33.75 31.03 28.74 26.47 24.18 21.93 19.72 17.6 15.79 16.07 18.52 21.85 25.84 29.93 33.98 37.46 40.18 41.21 40.67 40.67 41.53 43.85 47.42 50.18 51.88 52.74 52.73 51.4 48.85 46.07 43.29 41.41 40.36 38.83 36.86 36.33 37.21 37.53 37.12 36.67 36.38 36.98 38.2 37.23 33.88 29.57 24.63 20.41 17.13 15.29 14.67 13.26 11.04 10.5 15.9 15.9 15.9 15.9 15.9
15.9 0.0 0.0 0.0 0.0 0.0 0.0 0.0 0.0 0.0 0.0 0.0 0.0 0.0 0.0 0.0 0.0 0.0 0.0 0.0 0.0 0.0 0.0 0.0 0.0 0.0 0.0 0.0 0.0 0.0 0.0 0.0 0.0 0.0 0.0 0.0 0.0 0.0 0.0 0.0 0.0 0.0 0.0 0.0 0.0 0.0 0.0 0.0 0.0 0.0 0.0 0.0 0.0 0.0 0.0 0.0 0.0 0.0 0.0 0.0 0.0 0.0 0.0 0.0 0.0 0.0 0.0 0.0 0.0 0.0 10.61 15.6 19.41 20.99 22.17 23.02 23.52 24.04 24.41 24.66 24.72 24.81 24.89 24.99 25.0 25.0 25.0 25.01 25.08 25.16 25.16 25.06 24.94 24.75 24.52 24.06 23.75 23.59 23.28 22.97 22.96 22.97 22.98 22.92 22.76 22.5 21.6 20.48 18.37 16.52 12.49 10.13 9.35 7.9 7.23 7.52 7.58 6.91 5.49 4.68 3.51 3.35 4.72 5.23 3.54 3.59 2.73 3.14 3.11 0.0 0.0 0.0 0.0 0.0 0.0 0.0 0.0 0.0 0.0 0.0 0.0 0.0 0.0 0.0 0.0 0.0 0.0 0.0 0.0 0.0 0.0 0.0 0.0 6.97 4.76 4.73 5.25 0.0 0.0 2.54 2.44 2.04 0.0 0.0 0.0 0.0 1.72 2.64 3.96 6.04 7.99 9.32 8.86 8.19 9.78 10.32 5.51 0.0 0.0 2.54 1.86 1.03 0.0 0.0 0.0 0.0 1.73 0.92 0.75 0.74 0.0 0.0 0.0 0.0 0.0 0.0 0.0 0.0 0.0 0.0 0.0 0.0 0.0 0.0 0.0 0.0 0.0 0.0 0.0 0.0 0.0 0.0 0.0 0.0 0.0 0.0 0.0 0.0 0.0 0.0 0.0 0.0 0.0 0.0 0.0 0.0 0.0 0.0 0.0 0.0 0.0 0.0 0.0 0.0 0.0 0.0 0.0 0.0 0.0 0.0 0.0 0.0 0.0 0.0 0.0 0.0 0.0 0.0 0.0 0.0 0.0 0.0 0.0 0.0 0.0 0.0 0.0 2.56 4.58 0.0 0.0 0.0 0.0 0.0 0.0 0.0 5.94 8.22 9.14 9.95 10.08 9.42 8.87 8.92 8.83 8.75 8.6 8.27 6.85 0.0 0.0 0.0 0.0 0.0 0.0 0.0 0.0 6.25 6.34 4.98 6.64 8.83 10.09 11.48 13.48 15.42 16.64 17.33 18.05 18.88 19.93 22.71 21.0 20.79 22.12 23.73 23.01 23.9 29.56 27.09 24.5 22.7 20.39 19.36 20.33 24.6 25.28 24.4 25.36 25.14 24.81 13.34 10.55 8.89 9.4 10.72 10.66 8.57 11.86 18.89 24.57 24.76 24.7 21.48 24.56 25.61 25.95 25.29 24.87 24.96 25.64 26.56 26.65 26.49 26.83 27.27 28.07 28.5 28.88 29.16 29.4 29.98 30.37 30.84 31.19 31.58 31.89 32.17 32.77 33.32 34.17 34.7 35.38 36.04 36.49 36.87 37.61 38.67 40.12 39.92 39.13 37.73 38.17 37.3 34.6 42.82 39.97 35.18 28.83 15.6 17.48 29.02 30.83 32.59 42.42 38.12 34.24 33.61 34.67 36.82 42.98 46.54 49.08 51.47 54.39 58.94 54.56 40.98 33.41 34.03 33.51 35.2 44.83 53.31 72.58 78.0 69.35 57.09 52.8 52.05 51.34 50.72 50.88 54.52 51.22 51.55 52.22 55.92 57.18 56.79 52.9 45.78 39.38 34.24 30.37 27.63 24.83 21.86 19.19 16.89 15.15 14.11 14.79 17.2 20.46 24.4 28.65 33.06 36.89 39.93 41.11 40.62 40.93 42.34 44.69 47.71 49.66 50.38 50.44 49.86 48.19 45.49 42.7 40.03 38.21 37.17 35.78 34.14 34.18 35.74 35.98 34.74 33.84 33.62 34.76 36.79 35.56 30.87 25.6 20.33 16.76 14.95 13.78 12.96 11.45 9.29 8.78 15.9 15.9 15.9 15.9 15.9
4.5 0.0 0.0 0.0 0.0 0.0 0.0 0.0 0.0 0.0 0.0 0.0 0.0 0.0 0.0 0.0 0.0 0.0 0.0 0.0 0.0 0.0 0.0 0.0 0.0 0.0 0.0 0.0 0.0 0.0 0.0 0.0 0.0 0.0 0.0 0.0 0.0 0.0 0.0 0.0 0.0 0.0 0.0 0.0 0.0 0.0 0.0 0.0 0.0 0.0 0.0 0.0 0.0 0.0 0.0 0.0 0.0 0.0 0.0 0.0 0.0 0.0 0.0 0.0 0.0 0.0 0.0 0.0 0.0 0.0 10.21 14.6 18.65 20.44 21.65 22.74 23.36 23.83 24.27 24.57 24.69 24.78 24.83 24.97 25.0 24.99 24.99 24.99 25.01 25.02 24.98 24.83 24.7 24.45 24.19 23.66 23.34 23.16 23.05 22.78 22.79 22.76 22.67 22.66 22.59 22.24 21.08 20.19 18.42 15.87 11.61 9.18 8.55 7.64 7.55 7.69 7.05 6.46 5.25 4.47 3.38 3.78 5.3 6.25 5.28 4.66 2.95 3.96 3.63 0.0 0.0 0.0 0.0 0.0 0.0 0.0 0.0 0.0 0.0 0.0 0.0 0.0 0.0 0.0 0.0 0.0 0.0 0.0 0.0 0.0 0.0 0.0 4.46 2.89 0.0 0.0 0.0 0.0 0.0 0.0 0.0 0.0 0.0 0.0 0.0 0.0 1.64 3.64 3.98 4.65 6.2 8.49 8.35 7.51 9.41 9.72 3.92 0.0 0.0 1.78 0.0 0.0 0.0 0.0 0.0 1.44 1.0 0.68 0.69 0.0 0.0 0.0 0.0 0.0 0.0 0.0 0.0 0.0 0.0 0.0 0.0 0.0 0.0 0.0 0.0 0.0 0.0 0.0 0.0 0.0 0.0 0.0 0.0 0.0 0.0 0.0 0.0 0.0 0.0 0.0 0.0 0.0 0.0 0.0 0.0 0.0 0.0 0.0 0.0 0.0 0.0 0.0 0.0 0.0 0.0 0.0 0.0 0.0 0.0 0.0 0.0 0.0 0.0 0.0 0.0 0.0 0.0 0.0 0.0 0.0 0.0 0.0 0.0 0.0 0.0 0.0 0.0 0.0 2.62 3.83 0.0 0.0 0.0 0.0 10.08 9.55 8.41 8.08 7.73 7.46 8.46 8.9 8.95 8.96 8.96 9.0 9.04 9.01 8.77 8.21 6.45 5.46 2.89 0.0 0.0 0.0 0.0 0.0 5.36 4.79 5.19 7.61 9.27 10.69 12.89 14.79 16.16 17.0 17.82 18.55 19.23 20.36 20.33 20.63 22.37 24.05 25.13 24.2 27.42 28.33 24.37 22.9 22.85 21.2 21.13 24.97 25.39 21.69 25.26 24.91 24.49 17.13 11.51 5.96 7.62 8.99 9.51 9.33 12.51 19.06 24.43 25.57 25.69 25.01 24.83 25.79 25.23 25.04 24.95 25.58 26.23 26.96 27.38 27.47 28.04 28.44 28.78 28.86 29.04 29.46 29.79 30.2 30.55 31.42 31.18 31.43 31.77 32.06 32.72 33.4 34.47 34.87 35.42 36.06 36.47 36.96 37.76 38.46 39.75 41.82 45.05 41.91 40.35 40.93 43.25 45.59 41.93 38.09 32.55 22.52 18.76 29.21 30.91 34.22 41.89 35.6 30.06 28.73 28.69 30.05 42.64 48.6 51.29 54.02 52.56 52.67 50.29 48.66 42.06 42.42 42.41 45.46 55.82 66.09 68.42 63.03 53.98 51.75 51.75 51.12 50.37 50.48 47.28 48.77 48.88 49.93 52.19 55.63 58.56 60.28 57.35 49.9 42.42 35.63 30.79 27.79 24.73 21.45 18.49 15.98 14.37 13.76 14.59 16.83 19.67 23.01 26.93 31.3 35.25 38.53 40.1 40.12 41.05 43.09 45.36 47.58 48.64 48.46 47.76 46.59 44.57 41.79 39.06 36.55 34.78 33.68 32.35 30.87 30.97 32.51 32.75 31.6 30.99 31.22 32.65 34.74 33.14 27.76 22.27 17.32 14.48 13.68 12.95 11.98 10.4 8.29 6.52 4.5 4.5 4.5 4.5 4.5
